ply
format ascii 1.0
comment Created by Open3D
element vertex 1603
property double x
property double y
property double z
end_header
0.0570134 -0.0262634 0.48245
0.0163727 -0.0282913 0.483794
0.00542936 0.00357557 0.480273
0.0553076 0.0275846 0.477434
0.0170997 -0.0283989 0.48322
0.0654431 -0.0143221 0.482183
0.0662622 -0.0182839 0.482918
0.00532501 0.00539457 0.480785
0.0131037 -0.0264864 0.483914
0.0524449 -0.0245539 0.484883
0.0232419 0.0243548 0.478099
0.00660354 -0.00121695 0.480484
0.0552192 0.0215569 0.478398
0.0603442 0.020564 0.4782
0.0553838 -0.0248176 0.483496
0.00475051 0.00419909 0.479354
0.0199995 0.0240374 0.478824
0.040216 -0.00745601 0.48127
0.0222119 0.0226322 0.478395
0.0641418 -0.00633555 0.481087
0.0289115 -0.0341745 0.484772
0.0162344 0.0214702 0.478731
0.0632274 -0.0114092 0.481899
0.0268955 -0.0326591 0.484644
0.0636657 -0.0251756 0.482358
0.0252003 -0.0333286 0.48343
0.0181916 -0.0134185 0.482092
0.0370964 -0.0286036 0.483987
0.00602333 -0.00351677 0.481855
0.0593253 0.0184602 0.47892
0.0205578 -0.0310602 0.483203
0.0623421 -0.019388 0.482382
0.051274 -0.0295644 0.483711
0.0631119 0.0103674 0.477537
0.0592228 0.014519 0.479028
0.0164128 -0.0316122 0.483989
0.0567109 -0.0274875 0.482003
0.0643329 -0.0104716 0.481919
0.0622662 -0.0282382 0.483456
0.0512752 -0.0303836 0.483722
0.0623507 -0.018408 0.482238
0.0231369 -0.0324182 0.484794
0.046219 -0.0123008 0.481949
0.0430895 -0.00329925 0.480459
0.0549371 -0.0310389 0.482872
0.0635485 -0.0162764 0.482733
0.0193488 -0.00136753 0.48094
0.0614297 -0.0235148 0.482459
0.0543105 -0.0286397 0.483751
0.0629933 0.0107029 0.47927
0.0403509 -0.0154669 0.482183
0.0431708 -0.0105751 0.481762
0.0125704 0.0176202 0.478339
0.0584292 -0.0295687 0.483826
0.0212053 0.0242461 0.47805
0.0472464 0.00649009 0.480166
0.00537245 0.00618689 0.479456
0.0642038 -0.00932386 0.481301
0.0205619 -0.0286879 0.483298
0.0620651 0.0122352 0.479644
0.0583247 0.0175219 0.478853
0.06419 -0.00436591 0.481114
0.0547815 -0.0272717 0.482603
0.00678527 -0.0105262 0.482789
0.0352251 -0.0325396 0.484111
0.0577756 0.0148473 0.478414
0.0440988 -0.0323207 0.483338
0.0582691 -0.0254045 0.483297
0.0491182 -0.031427 0.483455
0.00515542 0.00446013 0.480726
0.0290472 0.0237847 0.478731
0.0652727 -0.0123284 0.482012
0.0180668 -0.0330846 0.483523
0.0492193 -0.00535457 0.481016
0.0567629 0.0121698 0.48033
0.0472207 0.000849254 0.48071
0.0493897 -0.0258283 0.483661
0.0262153 -0.00148923 0.480868
0.0375186 -0.0235135 0.482432
0.0130854 -0.022416 0.483016
0.0393883 -0.0324106 0.484681
0.0451533 0.0275722 0.479909
0.06414 -0.0134091 0.481541
0.0440524 0.0254995 0.477407
0.0612099 -0.00536215 0.481059
0.0653532 -0.0102637 0.482211
0.0612989 0.0107894 0.479804
0.00832305 -0.0103353 0.482053
0.0643333 -0.0103122 0.481292
0.0406327 0.0268783 0.480837
0.0222305 0.0215975 0.47835
0.0264619 -0.0334825 0.484751
0.0652048 -0.0205277 0.482205
0.0344194 -0.0122431 0.481465
0.0624207 -0.0160257 0.482714
0.0094968 0.00346449 0.480791
0.0131414 -0.0274003 0.483267
0.0232244 -0.0325264 0.484002
0.0497023 -0.00576302 0.481834
0.0512379 -0.030495 0.48337
0.0566513 -0.0255758 0.483626
0.00632186 0.00862559 0.479254
0.0544587 0.0273147 0.477579
0.0522805 -0.0295 0.483418
0.0400777 0.0268403 0.480158
0.0302372 -0.0132774 0.481888
0.0240359 -0.0323603 0.483394
0.0294545 -0.0145462 0.481336
0.0204113 -0.00829616 0.481358
0.0586605 -0.0270813 0.483667
0.0113143 -0.032262 0.483957
0.0465359 0.0259505 0.477515
0.0473696 -0.0122825 0.48138
0.057995 -0.0240067 0.4823
0.0404041 -0.0185321 0.482869
0.00650235 -0.0142058 0.480363
0.059337 -0.0302825 0.483346
0.00739499 -0.00651109 0.48178
0.0200631 -0.0304665 0.483893
0.0533478 -0.0283702 0.483429
0.0172233 -0.0317327 0.483279
0.0650725 -0.0223271 0.482445
0.0192291 0.0226423 0.478172
0.011058 -0.0224484 0.483715
0.0643151 -0.0143702 0.481982
0.0373236 -0.019328 0.48222
0.0635453 -0.0150253 0.482709
0.0281147 0.0267447 0.506615
0.0493255 -0.00338592 0.480998
0.0102375 -0.0133901 0.482054
0.0464938 -0.0319172 0.484814
0.0561619 -0.0263887 0.483109
0.00998362 0.00843607 0.480247
0.0441746 0.0232888 0.478732
0.0520311 -0.0290913 0.48376
0.0458108 -0.0185809 0.477692
0.0562911 0.0195001 0.478324
0.00619789 0.00162798 0.480874
0.0639362 0.0044535 0.480012
0.0131337 0.0015718 0.480816
0.0372197 0.00966258 0.479387
0.0253278 -0.0305547 0.484005
0.00534816 0.00251084 0.481
0.00469928 0.00458212 0.480462
0.0633469 -0.0163921 0.482215
0.00824299 0.000653033 0.48029
0.00922221 -0.0134228 0.482249
0.0222148 0.0236845 0.478249
0.0147495 -0.012993 0.481527
0.00502599 0.000726654 0.48196
0.00474687 0.00618084 0.478987
0.0292068 0.0115055 0.479316
0.0322917 -0.0324781 0.484085
0.00518296 0.00363284 0.481086
0.0660216 -0.0243932 0.482532
0.0312113 -0.0173489 0.482213
0.00922958 0.0132346 0.479843
0.00816962 -0.0174022 0.482255
0.0121899 0.0173906 0.478966
0.0530996 0.0213533 0.478708
0.0452994 0.0253323 0.477518
0.0135473 -0.0305551 0.483132
0.00976279 0.0082108 0.481626
0.00713284 0.00856755 0.479253
0.00744421 -0.0163858 0.482271
0.0652154 -0.0081389 0.482116
0.037332 0.00256558 0.480352
0.0382956 -0.0315218 0.483564
0.0531647 -0.0274654 0.483814
0.0054189 0.0114133 0.479909
0.0663141 -0.0165301 0.482842
0.0134555 0.0176263 0.479855
0.0491242 0.023036 0.478633
0.0558263 -0.0237536 0.487359
0.0535069 -0.0312052 0.483509
0.0502423 0.0236673 0.478149
0.0172109 0.0215855 0.478164
0.0212546 -0.0113822 0.481974
0.039282 0.0236266 0.478041
0.0157928 -0.0267893 0.48292
0.029085 0.00354701 0.480722
0.0171336 0.0206106 0.478446
0.0574313 -0.0304343 0.483864
0.0451779 -0.0321256 0.484169
0.0451902 0.0256332 0.477858
0.0632024 -0.0283484 0.483912
0.011941 0.0158558 0.478934
0.0137802 -0.0252675 0.482522
0.0101895 -0.0213613 0.482928
0.0561879 0.0183805 0.4789
0.0155615 0.017737 0.478372
0.0451432 0.00557257 0.480023
0.0453374 -0.0114165 0.481986
0.0373932 0.0262889 0.47827
0.044665 0.02279 0.478672
0.0102178 -0.0254174 0.483179
0.063437 -0.0184294 0.482361
0.0272183 0.0251773 0.479277
0.0312875 -0.0153997 0.482687
0.0231391 -0.0305176 0.483529
0.0371304 -0.0303521 0.483886
0.0281334 0.0155555 0.479087
0.0281511 -0.0329106 0.48465
0.00926178 0.00858544 0.479906
0.0542776 -0.0274487 0.483203
0.0471315 0.00153871 0.480377
0.0391726 -0.0213829 0.482287
0.0311586 0.00346383 0.480698
0.0403643 0.0144973 0.47913
0.0582569 -0.0286643 0.483956
0.0404088 0.0264611 0.478922
0.0305437 -0.0135319 0.481472
0.0451045 -0.0320733 0.483382
0.0603346 -0.0204678 0.482172
0.0362132 -0.0202923 0.482427
0.0272095 0.010554 0.479267
0.0442049 -0.00476396 0.481765
0.0591317 -0.0232621 0.482402
0.0636461 -0.0134934 0.481579
0.00728762 -0.0143818 0.482929
0.00664773 -0.0105064 0.481888
0.0592369 0.00969512 0.479459
0.0491804 -0.0253374 0.48312
0.0421121 0.00753369 0.479815
0.0403402 0.0262439 0.478353
0.0341334 -0.00898305 0.480511
0.0650779 -0.00935522 0.481362
0.041121 0.000630961 0.480359
0.0503375 -0.0304055 0.483406
0.027314 0.0085986 0.4794
0.0173783 0.0178192 0.478361
0.00744912 -0.00140216 0.480934
0.0592096 0.0154854 0.478988
0.01631 -0.027447 0.484092
0.0341727 0.00949562 0.479316
0.0342919 0.0155953 0.478554
0.0112327 -0.0314485 0.484043
0.0372404 -0.0313469 0.483281
0.034212 -0.032261 0.48338
0.0561685 -0.0284089 0.483391
0.0442517 -0.0321815 0.485013
0.0633294 -0.0154053 0.482081
0.0111875 -0.0224213 0.483131
0.0303487 -0.00345705 0.48049
0.0612853 0.0216767 0.478728
0.0571987 0.0174129 0.478771
0.00676522 -0.0114925 0.481362
0.0367292 0.0235331 0.478657
0.0101125 -0.0214731 0.482441
0.0141764 -0.0255808 0.483246
0.0224203 -0.00945649 0.481806
0.0553053 -0.0273978 0.483356
0.0353643 0.0226748 0.478254
0.0373312 -0.0103177 0.481397
0.0222256 0.0227288 0.47869
0.0393623 0.0263298 0.478115
0.0135532 -0.0314447 0.483341
0.0109556 -0.0314093 0.484728
0.0372219 -0.0315721 0.483855
0.0311292 -0.0304178 0.483334
0.064902 -0.00839885 0.481273
0.0411093 0.00154519 0.480294
0.0565392 -0.0272106 0.483739
0.0614418 -0.013364 0.481412
0.0502114 0.0273735 0.478065
0.0625132 -0.0173833 0.482222
0.0250785 0.0249006 0.476358
0.0111397 -0.0204101 0.482915
0.0404556 -0.00476327 0.481695
0.0365274 -0.0265184 0.482542
0.020172 0.018426 0.478906
0.0063818 -0.01166 0.510532
0.0643591 -0.0123276 0.481982
0.0611123 -0.0214406 0.482939
0.0202848 -0.0014401 0.480839
0.0443192 -0.0321092 0.483922
0.0065365 -0.0120291 0.482886
0.0154914 0.0237228 0.477486
0.00354203 0.0132621 0.483873
0.00475951 0.00370941 0.480263
0.00540668 0.00172163 0.480922
0.0333421 0.0246194 0.478086
0.034222 -0.0325248 0.484003
0.031216 -0.0334627 0.484163
0.0307714 -0.0232638 0.482436
0.0130966 -0.0325457 0.484203
0.037117 0.000725011 0.480871
0.0531092 0.0207124 0.478795
0.0143472 0.0202805 0.478803
0.049148 -0.0303376 0.483254
0.0491841 -0.0073556 0.48124
0.0464651 -0.0105553 0.481266
0.0362052 -0.0246664 0.483805
0.0113907 -0.00847857 0.481897
0.005607 0.00147091 0.480407
0.0632667 -0.0139911 0.48154
0.0643214 -0.0133794 0.481966
0.0298418 -0.0328372 0.483569
0.0448006 0.0247117 0.477475
0.00933884 0.00752574 0.479989
0.018084 -0.031481 0.483373
0.00549681 -0.00498968 0.479474
0.00459313 0.00661113 0.480206
0.0053716 0.000511501 0.480975
0.0192808 0.0216656 0.478273
0.0652721 -0.023581 0.482535
0.0362502 -0.0331067 0.483847
0.0465186 -0.0310129 0.482466
0.0405209 -0.0327627 0.482472
0.0322946 -0.0333707 0.48404
0.0105558 -0.0244506 0.483668
0.0603132 0.00656512 0.479872
0.00526297 0.00695143 0.480801
0.035142 -0.0331254 0.48412
0.0190041 0.0203133 0.478741
0.0110362 -0.0145268 0.482763
0.0295885 0.00829815 0.479465
0.0231934 0.0236341 0.478192
0.0113087 0.0194736 0.478421
0.0649037 -0.00476289 0.481656
0.0184983 -0.02816 0.484985
0.0499326 -0.00226781 0.481648
0.0292825 0.0104182 0.479878
0.0201603 -0.0334905 0.483959
0.0193019 -0.00537779 0.480864
0.00698888 -0.000767534 0.4796
0.0149511 -0.0254711 0.484016
0.0138044 -0.0244774 0.483369
0.0277831 -0.0125225 0.482619
0.0201794 0.0203727 0.47868
0.0212224 -0.031547 0.484089
0.00839312 -0.0232007 0.483201
0.0381659 -0.0167759 0.482716
0.0174246 -0.027244 0.486573
0.0320636 0.00966148 0.479335
0.0462251 -0.0274164 0.483317
0.00837493 0.010505 0.4793
0.00377738 0.00871509 0.48192
0.00974518 0.00844503 0.480758
0.0431367 -0.0131987 0.481448
0.0233805 -0.0344161 0.484638
0.0563322 0.0176296 0.478258
0.0202273 0.0226876 0.478123
0.0630217 0.00669988 0.480623
0.014805 -0.0335727 0.48334
0.0320155 -0.011556 0.481415
0.0582446 0.0135068 0.479214
0.0609279 0.0111626 0.479819
0.0160489 0.0234243 0.478124
0.059009 0.0176071 0.478368
0.0471149 0.00446174 0.4809
0.0632257 -0.0274804 0.483133
0.00996744 0.0128931 0.479469
0.0342639 -0.0332922 0.484114
0.0422284 -0.0254005 0.483014
0.0413107 -0.0152827 0.48294
0.0513494 0.0275301 0.477884
0.00327375 0.0149363 0.481281
0.0561505 -0.0247875 0.482909
0.0462567 -0.0315628 0.484085
0.0418545 -0.0323277 0.483442
0.0522974 0.0275954 0.477799
0.0032703 0.0156677 0.480775
0.0573894 0.0215933 0.478409
0.0284536 -0.0324496 0.483393
0.0393704 0.0049572 0.480632
0.0144048 0.0184388 0.478364
0.0471745 -0.0294389 0.483296
0.00939092 0.0154865 0.479021
0.0391 -0.00231156 0.480368
0.00469599 0.00569815 0.480132
0.00551383 -0.000645208 0.480955
0.0342036 -0.0330666 0.483261
0.0637248 -0.0273725 0.482175
0.00630821 0.0125911 0.479792
0.0160844 0.0195815 0.478365
0.00914071 -0.0204318 0.482444
0.0623391 -0.0164328 0.482082
0.00938199 0.0115152 0.480013
0.0131695 0.0183201 0.478497
0.0142373 -0.0315436 0.483898
0.0422522 0.0256068 0.478025
0.0211951 -0.031077 0.483465
0.0117768 0.0242297 0.492825
0.00920508 -0.0183392 0.48291
0.0554238 -0.0253367 0.483845
0.0502364 -0.0295731 0.483852
0.0375567 -0.0205581 0.482279
0.0586466 -0.0122439 0.481496
0.00826007 0.0174738 0.478401
0.0321395 0.010487 0.479234
0.0346176 -0.025585 0.483799
0.0122546 0.0225797 0.478721
0.0624117 0.00661312 0.479489
0.0413321 0.0114874 0.479231
0.0332681 -0.0315027 0.483959
0.0283708 0.00956872 0.47935
0.0394071 -0.0183803 0.482169
0.0482174 -0.0103075 0.481336
0.0612177 -0.0295945 0.483793
0.0303504 -0.01743 0.482365
0.0321782 -0.0273942 0.483188
0.0252378 0.00370278 0.479384
0.00801539 -0.013493 0.481568
0.0380628 0.0105831 0.479841
0.0522276 -0.0256191 0.483261
0.0314035 0.0106625 0.479684
0.00533048 0.0186909 0.478472
0.0417917 -0.0160258 0.482717
0.0313483 0.0112613 0.47979
0.0245384 -0.0144006 0.482725
0.0211225 -0.00551314 0.481809
0.026319 -0.0295272 0.483278
0.0406964 -0.0164873 0.481591
0.034245 0.0154336 0.47886
0.0134427 0.00160604 0.480211
0.0262715 0.0077584 0.479367
0.0289697 -0.01642 0.482753
0.0470796 -0.0303538 0.483414
0.0531659 -0.0264183 0.483204
0.0393056 -0.0171823 0.482893
0.0215044 -0.00943371 0.481281
0.0223953 -0.0104652 0.481897
0.0234137 0.00686935 0.475124
0.0376231 -0.0114304 0.481371
0.0432117 0.00359358 0.480115
0.0360736 -0.0176673 0.483158
0.0475465 -0.00524624 0.480227
0.0370038 0.010541 0.479807
0.0341288 -0.0215122 0.483088
0.0053608 0.0175732 0.478411
0.0121992 0.0240557 0.489286
0.0249847 0.00643307 0.479294
0.0184889 -0.0142385 0.48147
0.0290984 0.0095383 0.479948
0.0302103 0.0203995 0.478822
0.0343493 0.0226336 0.478318
0.0412537 -0.02243 0.483071
0.0285368 -0.0174432 0.482154
0.045366 0.00643627 0.479529
0.0171527 0.017677 0.478984
0.0271865 0.00851339 0.479934
0.0223725 -0.00827506 0.481316
0.0493556 -0.0042215 0.480888
0.0164957 -0.015238 0.481529
0.0317111 -0.0133671 0.481526
0.0362197 0.0125626 0.479299
0.0273676 -0.0258523 0.484112
0.036214 0.0154892 0.479106
0.0618743 0.0195786 0.478968
0.0446196 0.00495951 0.480856
0.0400019 0.0209535 0.47826
0.0590545 0.00321521 0.480756
0.0383066 -0.0174685 0.482189
0.0467783 -0.0252699 0.482568
0.00376455 0.0134126 0.480284
0.0329223 0.0261399 0.481
0.0483698 -0.00934578 0.48124
0.018702 -0.00300936 0.480539
0.0553503 0.00262082 0.480217
0.030346 0.0128983 0.479662
0.0615016 -0.010371 0.481391
0.0582798 -0.000603527 0.480871
0.0612391 0.0104951 0.479337
0.0183648 -0.00642703 0.481236
0.0214892 -0.0047627 0.481637
0.0343237 -0.00842596 0.481185
0.0442451 0.0216153 0.478153
0.0339822 -0.00763602 0.481897
0.0506885 -0.00626067 0.481718
0.021284 -0.00340402 0.481028
0.0502204 0.00261817 0.480179
0.0451108 0.00172105 0.480781
0.0192687 0.00269373 0.481014
0.0273509 0.00792492 0.479425
0.0401542 0.0015769 0.480222
0.0362254 -0.028399 0.483132
0.0312603 -0.00941555 0.481411
0.0522243 0.0255786 0.478011
0.0442251 0.00733491 0.479819
0.00731676 0.0183371 0.478296
0.040415 0.00963105 0.479364
0.0493141 -0.00251372 0.480968
0.0566382 0.0112742 0.479275
0.0359662 -0.0193231 0.482839
0.0270253 0.00946063 0.479943
0.00723367 0.0103358 0.479351
0.045351 -0.0134081 0.482099
0.0222703 -0.0092498 0.481442
0.0630475 -0.01836 0.482726
0.0253498 0.00660746 0.479937
0.0503098 0.000444656 0.480781
0.037113 -0.0273941 0.48366
0.0487234 0.0056915 0.479569
0.0603934 -0.0143702 0.482167
0.0398648 0.0222444 0.477606
0.049324 -0.00476427 0.481796
0.0363212 -0.00635281 0.481136
0.0332193 -0.0173662 0.482904
0.0435367 -0.0142736 0.482657
0.0261668 -0.0294465 0.483937
0.0213758 -0.00536257 0.481091
0.0219878 -0.00650903 0.481628
0.021228 0.000611794 0.480858
0.0375449 0.00171676 0.479575
0.0412255 -0.028459 0.483898
0.0434044 0.00770885 0.479224
0.0325329 -0.0167724 0.482616
0.0134419 0.000530647 0.480359
0.0640661 -0.00529031 0.480987
0.0375014 -0.00735934 0.481295
0.0280971 -0.0253386 0.482289
0.0473966 -0.0102429 0.481232
0.0123365 -0.000354031 0.480376
0.0303334 0.00955768 0.479461
0.0495086 0.00338127 0.480761
0.0553024 0.00457842 0.480071
0.0301382 0.00953424 0.479869
0.0242223 -0.0121795 0.481412
0.0462321 0.00651714 0.480103
0.0335085 0.0222455 0.478696
0.0482357 0.00162226 0.480209
0.0404625 -0.00841398 0.481777
0.0430842 -0.00748783 0.480399
0.0324128 -0.0112041 0.482068
0.0472317 0.00357526 0.480063
0.02836 -0.0153933 0.482225
0.0184327 0.0212545 0.478715
0.0360368 -0.0160241 0.482668
0.0593861 0.00749794 0.479913
0.027371 -0.000271118 0.480323
0.0174216 -0.00729367 0.481268
0.0477182 0.00482082 0.479453
0.0332587 0.00757174 0.480045
0.0482655 -0.00738512 0.481817
0.032773 0.0245331 0.478818
0.0219959 -0.0055131 0.481805
0.0241287 0.0039524 0.479552
0.0322404 0.00160621 0.480288
0.0648121 -0.00641722 0.480976
0.0485092 -0.0105661 0.481759
0.0249097 -0.0346991 0.485085
0.0554345 -0.00676037 0.48176
0.00642681 -0.0084145 0.482164
0.0243038 0.00455343 0.480065
0.00363096 0.0154055 0.479071
0.0512294 0.0226896 0.478166
0.0532708 0.0256149 0.47802
0.0350806 -0.01941 0.482928
0.0311042 0.0096004 0.479379
0.0101733 -0.0304438 0.483353
0.0401717 -0.016528 0.482781
0.0411553 0.00866921 0.479381
0.0134712 -0.00151546 0.480416
0.0521899 0.0236646 0.478184
0.0183487 -0.00436549 0.481065
0.0222749 0.000571111 0.480369
0.0463411 -0.0112811 0.48192
0.0152693 0.00243431 0.480222
0.0403106 0.0114834 0.479377
0.0541684 -0.00933117 0.481351
0.0332805 -0.010356 0.481856
0.0243568 0.0110111 0.484084
0.053296 0.00753355 0.480199
0.0453402 -0.0123997 0.481895
0.0451789 0.00456169 0.480182
0.0272335 0.00747615 0.48005
0.0312563 0.0055493 0.480157
0.0592569 -0.0285961 0.483861
0.0461284 -0.0320889 0.483617
0.0383766 0.0095776 0.479276
0.0363062 -0.0083561 0.481267
0.0658164 -0.0135293 0.48286
0.0382809 -0.00544184 0.481019
0.0522405 -0.00122488 0.48031
0.0443554 -0.0134441 0.482045
0.0463707 0.0272696 0.477512
0.0203012 -0.00948261 0.481863
0.0572386 -0.00535422 0.480982
0.049936 0.00593641 0.479285
0.0292642 -0.0255248 0.483133
0.0433669 -0.0144286 0.482051
0.0443347 -0.0194253 0.482273
0.0464353 0.00338113 0.480742
0.00906664 -0.0192854 0.482941
0.0484369 -0.00240694 0.480952
0.0443614 -0.00935942 0.481248
0.0233229 -0.00651033 0.481721
0.0313774 -0.0163769 0.482295
0.0353728 -0.0194058 0.48238
0.0241765 -0.0143144 0.482157
0.0232121 0.0147679 0.479861
0.0442186 0.00655779 0.480038
0.032521 0.0183797 0.478759
0.0197435 -0.00601038 0.481654
0.02953 0.00956194 0.479323
0.0314322 -0.0104056 0.481838
0.0215726 -0.0328329 0.483505
0.0465754 -0.0125434 0.481503
0.0605305 -0.0262714 0.482596
0.0371698 -0.0165901 0.482769
0.0203402 -0.00438279 0.481016
0.0612486 -0.012404 0.481255
0.0344796 -0.0097573 0.481871
0.0333718 0.0255253 0.478102
0.048275 -0.00640362 0.481207
0.0401712 -0.0243956 0.483076
0.0452977 -0.012305 0.481444
0.0603543 -0.000342148 0.480199
0.0632144 -0.0175265 0.482728
0.0224289 -0.000146699 0.480386
0.0442437 0.0245883 0.478037
0.0233361 0.00267297 0.48028
0.0462685 0.00757986 0.481165
0.0420994 0.0113941 0.479104
0.0261952 0.0194493 0.478404
0.0273465 -0.0143624 0.48218
0.0336947 -0.0152325 0.481355
0.0281687 0.00657674 0.480015
0.04027 0.00860897 0.479485
0.0484855 -0.00832952 0.48179
0.0462379 0.00370401 0.479555
0.0333011 -0.0174476 0.482276
0.0400999 -0.0245957 0.482419
0.045244 0.00444924 0.479553
0.0183451 0.0226828 0.478314
0.0382982 -0.0184056 0.482284
0.0644254 -0.00958975 0.481811
0.0233164 0.00359299 0.480216
0.0551872 0.0188595 0.47961
0.0392759 0.00861567 0.479857
0.0221662 0.0243415 0.4783
0.0654851 -0.016354 0.481345
0.0234132 -0.0135255 0.482725
0.0233702 0.0017565 0.480739
0.0299676 -0.0315854 0.483579
0.0232827 0.00519974 0.480038
0.0453157 0.00552443 0.479436
0.0114026 -0.00633037 0.481174
0.0411433 -0.0245137 0.482444
0.0424316 -0.013989 0.481466
0.0383157 0.000628556 0.480374
0.0295126 -0.0192592 0.482285
0.00952992 0.0203546 0.478878
0.0102037 0.0184733 0.478904
0.0532398 0.0216838 0.478255
0.0341918 -0.0272349 0.483853
0.0241374 -0.0294303 0.483341
0.0170491 -0.0145989 0.483077
0.0132384 0.0213056 0.478748
0.040404 -0.000458352 0.48108
0.00836589 0.0115735 0.479191
0.045484 0.00395168 0.479464
0.0313277 -0.00740149 0.481255
0.0612076 0.0205163 0.478336
0.0533572 -0.00319562 0.48047
0.0343546 -0.0173396 0.482745
0.0300877 0.00693268 0.479505
0.0114268 -0.00937194 0.481308
0.0612994 -0.00147506 0.480783
0.0364479 -0.0172322 0.481493
0.00735397 0.00557539 0.480266
0.0305408 -0.0155264 0.48274
0.0432615 0.00295908 0.479606
0.0341341 -0.0260042 0.482278
0.0410221 -0.0255157 0.482489
0.0459922 0.00569168 0.479584
0.0482084 -0.00601307 0.48187
0.00734402 0.0164865 0.478998
0.0276849 0.00595657 0.480913
0.0149469 -0.0293138 0.483298
0.0403025 0.00855378 0.479871
0.0532579 0.000591434 0.480286
0.0222694 0.00440032 0.480973
0.0423941 0.0177318 0.478231
0.0363524 -0.00850923 0.481877
0.0244994 0.0116523 0.479513
0.0483335 -0.00345449 0.480907
0.056067 0.0217965 0.478637
0.0274604 -0.0134868 0.481345
0.0286026 0.00395274 0.479592
0.0491963 0.00149538 0.480304
0.0472334 -0.000381422 0.480137
0.016207 0.0184528 0.478268
0.0331959 0.0154926 0.478955
0.0381974 -0.000669998 0.48091
0.0223657 -0.00537296 0.481172
0.00927828 -0.0195485 0.482378
0.0481086 -0.00233647 0.480376
0.0172726 -0.000306551 0.480344
0.0103622 -0.00440341 0.481323
0.0302114 0.00853224 0.479827
0.0282172 0.00750783 0.479978
0.0329543 -0.033069 0.483296
0.00725248 0.0124996 0.479102
0.0600948 0.0174608 0.478726
0.0261623 0.0236309 0.478128
0.0442389 0.00544148 0.479429
0.0262534 0.0105579 0.47927
0.0181918 0.0216401 0.478468
0.0363894 -0.0164136 0.482242
0.0611576 -0.00775647 0.481628
0.023423 0.0056462 0.481001
0.0135189 0.00372381 0.482118
0.00916931 -0.0300603 0.483225
0.0610593 -0.0103806 0.481837
0.0412015 -0.0243816 0.483126
0.0242883 0.00355891 0.480085
0.0304852 -0.0230809 0.483842
0.0383444 0.0145087 0.478922
0.0525568 0.0273532 0.477532
0.0353539 0.0176385 0.4785
0.044379 -0.0124909 0.481398
0.0384402 0.00870198 0.479233
0.031352 -0.0113528 0.481484
0.0353961 -0.0163554 0.482114
0.0442111 0.00841652 0.479127
0.00748803 0.0133975 0.479745
0.0643933 -0.00743897 0.481838
0.0232588 0.00147089 0.480397
0.0433927 -0.0134456 0.482099
0.0351572 -0.0285586 0.483833
0.0386242 0.0212528 0.477562
0.0451577 0.0224164 0.478638
0.048283 -0.000413696 0.480838
0.060113 -0.0275973 0.48393
0.0374518 -0.0157383 0.481572
0.0135913 -0.0102412 0.481147
0.0475765 -0.00400499 0.48053
0.0124092 0.0239718 0.48758
0.0229306 -0.00226228 0.480473
0.036204 -0.01737 0.482171
0.0303626 -0.0153657 0.48218
0.0273616 -0.00538127 0.481172
0.00501222 0.00869193 0.480639
0.0396935 -0.0149886 0.481531
0.0243371 -0.0103111 0.481923
0.0460957 0.00221864 0.480663
0.029123 0.00760256 0.479982
0.027785 -0.0132734 0.482653
0.0400218 0.00370349 0.479487
0.0370424 -0.0144011 0.482738
0.0341237 -0.0136921 0.482721
0.0383539 0.0155939 0.478511
0.0355126 0.0185862 0.47897
0.0465822 -0.00798796 0.480545
0.0468372 -0.00724212 0.480607
0.0553807 0.0185927 0.479136
0.0393429 0.00841918 0.479286
0.0381099 0.00847449 0.479865
0.0607975 -0.0172765 0.482731
0.0223409 0.0156992 0.479836
0.0603626 0.00567515 0.479935
0.0102776 -0.0233855 0.48237
0.0462491 -0.0094237 0.481829
0.0212482 -0.000416706 0.480889
0.0292222 -0.0315269 0.48416
0.0320366 -0.0152742 0.482671
0.00849524 0.020809 0.478736
0.0429335 0.0178326 0.47872
0.0393491 -0.0154349 0.482114
0.0252435 0.00464507 0.480039
0.00916006 -0.0166097 0.482731
0.0374648 0.0154713 0.478552
0.048071 -0.00329355 0.480497
0.0361976 0.00259927 0.480208
0.0192468 -0.0315213 0.483994
0.0133982 -0.0123406 0.481371
0.0229775 -0.0124923 0.481456
0.0193901 -0.0123221 0.481892
0.0232831 0.000351332 0.480898
0.0333633 0.0184271 0.478802
0.0409681 -0.00499921 0.480389
0.0564673 -0.0285403 0.483766
0.0461877 0.00261468 0.480239
0.00714854 0.019414 0.478407
0.0335484 0.0260456 0.479265
0.0266052 -0.0248726 0.47498
0.0293775 0.00750032 0.479496
0.032302 0.0203912 0.478823
0.0204406 -0.00242799 0.480446
0.044303 -0.014529 0.482834
0.0521978 -0.00249124 0.480993
0.0083272 -0.0236484 0.4852
0.0273111 -0.0104468 0.482012
0.0392008 0.00258898 0.480079
0.0232442 -0.00251818 0.481814
0.0123457 -0.0304081 0.483447
0.0262595 -0.00839891 0.481269
0.0277294 -0.00476318 0.481686
0.0234086 -0.00730129 0.481774
0.00769086 -0.0158996 0.547224
0.0459906 0.00197047 0.480865
0.0475099 0.00661847 0.479232
0.0481237 -0.0254025 0.483108
0.0372997 -0.0184401 0.482245
0.035274 -0.00835632 0.481276
0.046559 -0.00723757 0.480306
0.014499 -0.0142392 0.481493
0.0252232 -0.0104976 0.481476
0.0372881 0.00854665 0.479469
0.0601631 0.0164465 0.478907
0.0073725 -0.0173708 0.483036
0.0075241 0.00952846 0.47978
0.0442433 0.00444846 0.479477
0.0342297 -0.0172797 0.482186
0.0528143 0.00259191 0.480625
0.0482344 -0.0267546 0.4838
0.00801268 -0.0122416 0.481404
0.0349197 -0.0167781 0.482779
0.0423824 0.00643584 0.479499
0.0622451 0.00460592 0.479951
0.0213232 0.0185637 0.479029
0.0293234 -0.0143141 0.481913
0.0203197 -0.00335012 0.480953
0.0612337 -0.0113651 0.481246
0.0311457 -0.00251132 0.480499
0.0244458 0.0014724 0.480903
0.0451056 0.00296599 0.480725
0.029306 -0.0103101 0.481456
0.063246 -0.0223824 0.483027
0.030227 -0.0274291 0.483319
0.00941405 0.0163797 0.479746
0.0234712 -0.000384594 0.480885
0.0167477 -0.0132446 0.481604
0.0552855 -0.00924775 0.481332
0.0482165 -0.00437309 0.480994
0.0402019 -0.0234099 0.483043
0.0372659 -0.0304962 0.48328
0.0163815 -0.00726073 0.481842
0.040934 -0.00425341 0.480476
0.0372339 0.00162763 0.480771
0.0532259 0.0226107 0.478252
0.0342535 -0.0283517 0.483967
0.0461524 0.0275009 0.478668
0.0122954 0.0181451 0.478241
0.0452367 0.0236035 0.478075
0.0244837 -0.00935361 0.481648
0.0661568 -0.0224528 0.48291
0.0143936 -0.0063301 0.481302
0.0383508 -0.0154131 0.482042
0.0323999 -0.0124607 0.481989
0.0591998 -0.00935232 0.481213
0.0432984 -0.0124492 0.481398
0.0407565 0.00693065 0.479364
0.0618891 -0.0239159 0.512476
0.0451062 0.00660087 0.48001
0.0382288 -0.0171512 0.482722
0.0593107 0.00357738 0.480221
0.0239171 -0.0041274 0.480291
0.00820834 0.0183427 0.478279
0.0351961 -0.026443 0.483273
0.00731231 -0.000271148 0.480444
0.0453342 -0.0103231 0.481096
0.0573137 0.0188236 0.478696
0.0321644 0.00263122 0.480224
0.0329271 -0.0324159 0.483264
0.0280736 0.0108163 0.479891
0.0592198 -0.0238511 0.494616
0.0433709 0.00863923 0.479443
0.0160543 -0.0151874 0.482185
0.0494006 -0.0287785 0.483768
0.0582312 -0.00638727 0.481223
0.0232168 -0.00161427 0.480214
0.00827221 0.0202983 0.478387
0.0293238 -0.0313162 0.483292
0.0599239 -0.000769356 0.480738
0.0323198 -0.0153749 0.482172
0.0433221 -0.0115044 0.481859
0.0253218 0.0075713 0.479907
0.0394272 -0.0145295 0.482851
0.0443982 -0.0103805 0.481832
0.0634068 -0.00576091 0.481657
0.0173594 -0.0053467 0.481272
0.0313302 -0.0183654 0.482245
0.0442593 -0.0274401 0.483198
0.0612135 0.0184808 0.478382
0.0342349 0.00857917 0.479397
0.0472307 -0.000427071 0.480811
0.0451763 0.00356648 0.480154
0.0573036 0.00162388 0.48037
0.0340916 0.00848018 0.479923
0.038523 -0.0160669 0.48145
0.0360486 0.00856746 0.479866
0.0563433 -0.0294727 0.483849
0.0442387 -0.0295766 0.483956
0.0375117 0.00394909 0.47915
0.0421882 0.00162344 0.480224
0.062425 -0.00508334 0.480501
0.0295418 -0.0150678 0.481403
0.0471969 -0.00234726 0.48089
0.0252727 0.00557287 0.480047
0.0402172 0.00748132 0.479932
0.0360442 -0.0112759 0.482767
0.0502833 -0.00443681 0.481081
0.0462517 -0.0075591 0.481769
0.0239206 -0.00325703 0.48036
0.0157042 -0.0255512 0.48794
0.027243 0.00656726 0.480025
0.0122101 -0.0275286 0.483979
0.0500609 -0.010227 0.480484
0.043289 -0.0123229 0.481925
0.0404317 -0.0134262 0.482154
0.0282262 0.021614 0.478396
0.0121546 0.0163886 0.478968
0.00354431 0.0147756 0.484185
0.0101674 0.013546 0.479139
0.0242874 0.000525604 0.480726
0.0072681 -0.00276676 0.481639
0.00796213 0.0118722 0.478367
0.0133219 0.0216688 0.478307
0.0262332 -0.0113402 0.481245
0.0254696 -0.0102859 0.481944
0.0335721 -0.00834482 0.481981
0.0351382 -0.0176751 0.482688
0.0461814 0.000475731 0.480691
0.0465768 -0.00425354 0.480489
0.0493571 -0.00143392 0.480902
0.0280563 0.00545789 0.480874
0.0307691 -0.0285096 0.482399
0.0573937 0.0195712 0.478237
0.0392686 0.00482019 0.47939
0.0243847 -0.00439419 0.481208
0.0622845 -0.00429409 0.480378
0.0572678 -0.00047881 0.480739
0.0352425 -0.0264611 0.483778
0.0413857 0.00595647 0.480905
0.0302267 0.0132731 0.47974
0.0102709 -0.0113663 0.482053
0.0350741 0.0113684 0.479759
0.0462789 -0.00730208 0.481273
0.00743474 -0.0134258 0.482738
0.0462036 0.000628607 0.480391
0.0253018 -0.00343898 0.480937
0.0403179 0.00656761 0.480055
0.0612662 -0.026345 0.483242
0.0181944 0.0194075 0.478826
0.0333457 -0.0153885 0.482076
0.0182659 0.0185213 0.478893
0.0243378 0.0127209 0.480002
0.0181685 -0.00932179 0.481478
0.0422165 -0.0274147 0.483287
0.041079 -0.0133053 0.482302
0.00736896 0.00258901 0.480082
0.0164407 -0.00950523 0.481746
0.0543124 -0.031111 0.483992
0.0245758 -0.00742685 0.481823
0.0302966 -0.01678 0.482835
0.0360828 -0.0186011 0.482805
0.0451824 -0.00940176 0.481924
0.0622626 -0.0113164 0.481299
0.0411873 0.00657546 0.479933
0.0483381 0.00353607 0.480107
0.0159792 -0.0122313 0.480999
0.0250349 -0.0143236 0.482655
0.0451867 0.00256457 0.480176
0.0182381 -0.0324986 0.483979
0.0351781 0.00358347 0.480048
0.0651124 -0.0129883 0.481354
0.0370618 0.0121551 0.479752
0.0431542 -0.0223962 0.482974
0.00633731 0.0134808 0.479174
0.0441097 -0.0223109 0.482772
0.0494028 -0.0277146 0.483789
0.0163499 -0.0261798 0.487097
0.0464359 -0.00126681 0.480502
0.0252864 0.00254871 0.480307
0.0561623 -0.00750017 0.481192
0.0429434 -0.0065088 0.481611
0.0603712 0.0197119 0.47869
0.039231 -0.00139107 0.480448
0.0242951 -0.00736806 0.481332
0.0402645 0.00950737 0.479912
0.0641906 -0.0193724 0.482339
0.0352149 0.0105112 0.47926
0.0273215 0.00156981 0.480219
0.00637692 0.00557558 0.480283
0.0639452 -0.022329 0.483843
0.0500913 0.00171679 0.479584
0.0253213 -0.00939382 0.481365
0.0353708 -0.0153813 0.482111
0.0512503 -0.0043749 0.481058
0.026157 0.00559006 0.479392
0.0268383 -0.0168071 0.483614
0.0252453 0.0154757 0.478983
0.0491368 -0.00935813 0.481184
0.0254889 -0.00750943 0.481785
0.0602627 -0.00736823 0.481255
0.0352681 0.00860819 0.479441
0.00534755 0.0145165 0.479087
0.0152735 0.00168842 0.480355
0.0432614 -0.0112424 0.481333
0.0284289 -0.00834479 0.481385
0.0401773 -0.012209 0.481349
0.00747047 0.00854586 0.480068
0.0463197 -0.0024278 0.480405
0.0285357 0.0136098 0.478471
0.0101719 -0.00847692 0.481806
0.0294605 -0.0133647 0.481434
0.0223536 -0.0024075 0.481063
0.0294837 -0.0212628 0.482396
0.0462898 -0.00636761 0.481089
0.0441788 0.0035419 0.480035
0.0342043 -0.0162351 0.481509
0.0412039 0.00750543 0.479824
0.0322477 0.0205871 0.478383
0.0216823 -0.00997611 0.480387
0.0384484 0.0143528 0.478453
0.0353374 0.0173821 0.478923
0.031318 0.00853463 0.479961
0.0382652 0.00256941 0.480302
0.0411695 -0.0204478 0.482962
0.0343209 0.0246273 0.478055
0.0171876 -0.0124397 0.481349
0.0329563 -0.0174817 0.481496
0.00876606 -0.00251755 0.481694
0.0193761 -0.000239974 0.480278
0.00903483 -0.0153591 0.482721
0.0304032 -0.00751097 0.481881
0.0422881 0.00764123 0.479435
0.0469474 0.0208977 0.477927
0.0221016 0.0245265 0.478689
0.0233534 -0.0134197 0.482194
0.0371588 0.00740857 0.479937
0.0244854 -0.00476313 0.481681
0.0442698 -0.000271009 0.480302
0.0249295 0.00122258 0.480623
0.0554537 -0.0263536 0.484106
0.0352883 -0.0113951 0.481932
0.050052 -0.00147389 0.480399
0.0370916 -0.021442 0.483054
0.0283556 -0.00651037 0.481727
0.0442999 -0.00824651 0.481103
0.0430692 0.0234749 0.477475
0.0411535 -0.000361568 0.480309
0.0573023 0.0245979 0.478011
0.0542542 -0.00739425 0.481252
0.039302 -0.0143607 0.482083
0.0251129 0.00752663 0.47937
0.0386153 -0.0104408 0.481151
0.0440609 -0.0274251 0.483838
0.0589267 -0.0243318 0.483795
0.0422609 -0.00540867 0.481052
0.053117 -0.02859 0.48376
0.0354898 0.0261693 0.476995
0.0422669 -0.00636801 0.481119
0.0383021 0.0226423 0.478174
0.0394858 0.00946865 0.479346
0.0622844 0.016776 0.476884
0.0285342 -0.00425391 0.480533
0.0407 -0.0037647 0.481634
0.0439894 0.00140978 0.480773
0.0293282 -0.00839543 0.481309
0.0082513 -0.0154602 0.482233
0.0143124 0.0175963 0.47904
0.0423454 -0.011443 0.481904
0.0452265 -0.00226203 0.480422
0.0393737 0.0174407 0.478855
0.0380092 -0.0257563 0.482314
0.0191162 -0.0351759 0.484729
0.0500333 -0.00201233 0.48022
0.0302641 0.00651423 0.480052
0.0214395 -0.00251142 0.480522
0.0502955 -0.00134237 0.480824
0.028328 -0.00636159 0.481258
0.0516504 -0.0273346 0.483716
0.0325044 -0.0103924 0.481856
0.0272637 -0.0324854 0.48405
0.0302416 0.00756113 0.479978
0.0303819 -0.0162794 0.482204
0.0393013 -0.01633 0.482841
0.0471994 -0.0312665 0.483296
0.0264303 0.000475784 0.480749
0.00754668 0.0014307 0.480841
0.0363767 -0.00537433 0.480552
0.0341763 -0.0165313 0.482874
0.0104592 -0.00639153 0.481319
0.00978958 -0.0112802 0.482948
0.0365519 0.00320738 0.479585
0.0215309 0.000574829 0.480341
0.0372011 0.00154124 0.480177
0.0495656 -0.00744597 0.481717
0.0462752 -0.0103191 0.481884
0.01323 -0.024437 0.483175
0.0361696 -0.0243221 0.483107
0.025336 -0.00440848 0.481093
0.0413521 0.000569341 0.480876
0.0621471 0.00739178 0.479363
0.0362346 0.00160293 0.480209
0.0363919 0.0195474 0.478207
0.0542262 -0.0063602 0.481162
0.0572807 0.0256209 0.477903
0.0481647 -0.00942408 0.48185
0.037299 -0.00439186 0.481103
0.0581979 0.0208132 0.478831
0.0183227 -0.00450145 0.480383
0.0102017 0.0203162 0.478809
0.00930727 0.0184318 0.478925
0.0233557 -0.00635168 0.48134
0.032365 -0.00342285 0.48118
0.0392833 -0.00538033 0.481089
0.0313479 -0.012414 0.482137
0.00852515 -0.0205039 0.48218
0.0364136 -0.0304291 0.483402
0.0282846 -0.00977298 0.482645
0.0612069 -0.025461 0.483143
0.0332551 -0.0163659 0.482212
0.0571648 -0.0303409 0.483307
0.0413884 -0.000470846 0.480936
0.0276155 -0.0248468 0.484064
0.030182 0.0116094 0.479029
0.0342512 -0.0102823 0.481778
0.0352 -0.0103979 0.481482
0.0252942 -0.0119883 0.481247
0.0343014 -0.00438382 0.481123
0.0582229 -0.0244961 0.483234
0.053283 -0.00674075 0.480362
0.0424544 0.0184185 0.478909
0.0262373 -0.0159946 0.481779
0.0334051 -0.0113843 0.48206
0.0362965 -0.0073671 0.481266
0.0244347 0.00843305 0.480074
0.0442761 -0.0112452 0.481453
0.0233575 -0.00129045 0.480877
0.0442648 -0.0103687 0.481286
0.0342328 -0.0233367 0.483085
0.0409844 -0.0063704 0.480581
0.0232011 -0.0277235 0.486141
0.04331 -0.0315726 0.483382
0.0409334 -0.00236089 0.480274
0.0473199 -0.00251107 0.480453
0.0494399 -0.00609426 0.481708
0.046283 -0.0134001 0.481965
0.022328 -0.00854934 0.48179
0.0432522 -0.00417001 0.480423
0.0373852 -0.00946041 0.481999
0.0500658 -0.00524962 0.480531
0.0201252 -0.034598 0.484841
0.0331894 0.00262529 0.480229
0.0221909 0.0206906 0.478387
0.0343274 -0.00342686 0.480904
0.0352745 -0.00955712 0.481221
0.0574148 -0.0297574 0.483726
0.0410877 -0.0013908 0.480332
0.0601429 0.0244673 0.477533
0.0623252 0.00947375 0.479256
0.0453029 -0.0315211 0.483362
0.0601093 0.0243947 0.478052
0.0619642 0.0097303 0.479664
0.0413027 -0.00139243 0.480904
0.0363976 0.00255154 0.480827
0.0137235 -0.00313383 0.480537
0.039405 -0.00844579 0.481815
0.0615188 -0.0245168 0.482504
0.0242024 0.0226148 0.478246
0.0438509 0.00595294 0.48062
0.0420079 0.00519366 0.479477
0.0304131 0.00296596 0.480721
0.0391646 0.00166939 0.480243
0.0111874 -0.0174416 0.482354
0.0094442 -0.00647478 0.481736
0.0653159 -0.0173344 0.482166
0.0332582 -0.0283481 0.483295
0.0639725 0.00259262 0.480752
0.0541643 0.0215926 0.478321
0.0134124 0.0205434 0.478323
0.0323503 0.00754862 0.479906
0.0312308 -0.0065115 0.481811
0.06016 -0.0301932 0.483063
0.0322799 -0.0092999 0.48145
0.029429 -0.00123082 0.480336
0.0111945 -0.0203882 0.482399
0.00951383 -0.00517869 0.481653
0.0386961 -0.0182315 0.481535
0.0266847 0.0251352 0.480847
0.0455858 -0.00500075 0.480537
0.0432252 -0.0314076 0.483927
0.0413882 -0.00240029 0.480934
0.0492381 -0.00641958 0.481159
0.046472 -0.0132994 0.481337
0.0603424 -0.0252624 0.482424
0.0372994 -0.00933906 0.481363
0.0313666 -0.0243374 0.483908
0.00429509 0.0136179 0.480003
0.0332648 0.00660761 0.47995
0.0511875 -0.00145449 0.480839
0.0478571 -0.0315713 0.483364
0.0263342 0.00360479 0.480132
0.00674052 0.00395284 0.479605
0.0341935 0.00363719 0.480108
0.0142491 -0.0113289 0.481473
0.0222954 -0.0123542 0.482054
0.0643037 -0.0021784 0.48028
0.0133384 -0.000499782 0.480863
0.03845 -0.0143664 0.481576
0.0313437 -0.00634977 0.481187
0.0511789 0.0236315 0.47814
0.0613058 -0.0301575 0.48398
0.0563356 0.0266191 0.477972
0.0311661 -0.0295141 0.483388
0.0617769 0.00321433 0.480623
0.0412072 0.00557313 0.480068
0.041219 -0.00929663 0.481285
0.0262083 -0.0285222 0.483217
0.0371699 0.0204064 0.478745
0.0582677 0.00362567 0.480155
0.0342118 0.00957285 0.479864
0.0412766 -0.00338659 0.481084
0.0669383 -0.0230759 0.483737
0.0371863 0.00353621 0.480128
0.0242172 0.0184781 0.478845
0.0245597 -0.00847125 0.48174
0.0419823 0.0133819 0.479184
0.0491704 -0.0294247 0.483475
0.0261778 0.021559 0.47829
0.0391658 -0.0184011 0.482713
0.0246127 0.00792287 0.479301
0.0544346 0.00420077 0.479546
0.0303804 -0.0143223 0.481999
0.0433021 -0.000488847 0.480401
0.0295531 -0.00226242 0.480505
0.0293755 -0.0325372 0.483453
0.0600506 0.000600338 0.480755
0.0292927 -0.0043828 0.481018
0.048105 0.0217715 0.478085
0.0221889 0.0234569 0.478789
0.0369636 -0.00576157 0.481712
0.010238 -0.00400485 0.480513
0.0412699 -0.0284555 0.483299
0.0292086 -0.0224815 0.482977
0.0301636 0.00338094 0.480714
0.0352843 -0.00444436 0.480931
0.0393094 -0.0214233 0.48294
0.0153527 -0.0143582 0.482041
0.0432666 -0.00953434 0.481815
0.0421068 0.000599656 0.48025
0.0259794 -0.00476256 0.481623
0.035244 -0.0041904 0.480381
0.0182548 0.0027198 0.481216
0.060326 0.00850233 0.479776
0.0421996 0.00866777 0.479302
0.0472161 0.0216427 0.478281
0.0302943 -0.00438352 0.481096
0.0502409 0.0218613 0.478248
0.0295968 0.00171685 0.479601
0.0278344 -0.0340855 0.48351
0.0368098 0.0135207 0.479708
0.0295696 -0.00325577 0.480168
0.0170382 0.00429404 0.521003
0.0342844 -0.0265884 0.483813
0.0112521 -0.018413 0.48237
0.00951525 -0.0075085 0.481725
0.045421 -0.0129904 0.481429
0.0262417 -0.00342279 0.480336
0.0204079 0.0174346 0.478384
0.0352552 -0.00350717 0.480534
0.0302463 0.00460433 0.480182
0.046145 0.00360455 0.480097
0.0362012 -0.0014878 0.480425
0.0334215 -0.00940511 0.48173
0.0262631 -0.00246112 0.480424
0.0292054 -0.00342755 0.480997
0.00937318 -0.00736834 0.481263
0.023191 0.00234336 0.480712
0.0393222 -0.0113816 0.481948
0.0143469 0.00258241 0.480953
0.0241848 0.0236347 0.478204
0.0092232 0.00544244 0.479515
0.0294012 -0.016403 0.482166
0.0311728 0.000568825 0.480437
0.0352465 -0.00636727 0.481069
0.0362651 -0.0113954 0.482125
0.0376076 -0.00325719 0.480375
0.0502928 -0.0313305 0.483511
0.0469541 -0.00325822 0.480529
0.0432705 -0.0163196 0.48155
0.00637309 0.00756134 0.479991
0.0372329 0.02143 0.478758
0.040512 -0.00720971 0.481771
0.0092882 -0.0062861 0.481273
0.0650453 -0.0175257 0.482707
0.0494135 -0.030645 0.483893
0.0343041 -0.00936906 0.481159
0.0297056 -0.0159808 0.481363
0.0612618 -0.000320816 0.480293
0.0321384 -0.00144445 0.480456
0.0402872 -0.00637021 0.481287
0.0181807 -0.00634933 0.482122
0.0283291 -0.00052055 0.480855
0.044344 -0.0153635 0.482114
0.0342035 -0.0144056 0.481497
0.0306374 -0.0114289 0.481312
0.0445013 0.0202585 0.478913
0.0593132 0.0236522 0.478117
0.0384671 -0.00526336 0.481791
0.0318829 -0.00499886 0.480356
0.0333466 0.000600411 0.48083
0.0303395 -0.0123716 0.481987
0.0432219 0.0207467 0.478251
0.0534157 -0.00450196 0.480437
0.0429261 0.0101433 0.478636
0.0622123 -0.0174426 0.482714
0.0303048 -0.0213419 0.482303
0.0282746 -0.00841685 0.481943
0.055232 -0.0294548 0.483263
0.027311 -0.00735604 0.481275
0.0132161 -0.0292463 0.483837
0.0373192 -0.0212646 0.482438
0.0311174 -0.0205287 0.482762
0.0565586 -0.0245877 0.483903
0.0420067 -0.0310031 0.482314
0.0414784 -0.00950993 0.481981
0.042076 -0.00450024 0.480254
0.0522663 -0.00535533 0.481082
0.0303154 -0.00734841 0.481299
0.0283317 0.0015326 0.480264
0.0582499 0.0204929 0.478384
0.0353797 0.0236665 0.478132
0.0271716 -0.00829596 0.481908
0.0314452 -0.0192982 0.482368
0.0613137 0.00360882 0.480115
0.0312797 0.00150859 0.480205
0.0292607 -0.00539801 0.481077
0.0401107 -0.0264678 0.483279
0.0600997 0.0104134 0.479657
0.0166095 -0.033929 0.484852
0.0343673 0.000520607 0.480301
0.0221901 -0.00325875 0.480606
0.0139741 -0.00226286 0.480596
0.0284731 0.00792621 0.479503
0.0332651 -0.0333263 0.483917
0.0262996 0.00556122 0.480018
0.030893 -0.00338207 0.480439
0.0322813 -0.0163519 0.482325
0.034593 0.0143986 0.479981
0.0132331 0.000689307 0.480808
0.0644883 -0.00551242 0.481748
0.0320968 -0.00650999 0.481699
0.0603377 -0.0295066 0.483722
0.0465406 0.0218713 0.477563
0.0393637 -0.0031754 0.48055
0.0461641 -0.0144618 0.48268
0.00398228 0.0148462 0.508062
0.0493155 0.00456925 0.480124
0.00742577 -0.00330343 0.481077
0.040337 -0.00332387 0.481023
0.0273413 -0.00241782 0.480936
0.036226 -0.0314749 0.48398
0.0412869 -0.00634835 0.481092
0.0552986 0.00358332 0.480039
0.0553542 -0.00126654 0.480414
0.0612452 0.0115451 0.47919
0.0417011 -0.00725812 0.481671
0.0502276 0.0226494 0.478168
0.00365837 0.016567 0.479412
0.0289218 0.00234362 0.480769
0.0370589 0.0143907 0.479716
0.0317218 -0.00201848 0.481688
0.0531853 0.00796304 0.481731
0.0370895 -0.000458271 0.480918
0.0242803 -0.0133323 0.482068
0.0574447 -0.0092998 0.481875
0.0432587 -0.00443117 0.481063
0.00923846 -0.00798403 0.480308
0.0362122 -0.0125267 0.482783
0.0301128 -0.00229139 0.480786
0.00876847 -0.00476456 0.481826
0.040944 -0.013992 0.481569
0.0163219 -0.00641338 0.481133
0.0381961 -0.00516606 0.480474
0.0351301 -0.00649412 0.480525
0.0101438 -0.00638869 0.481956
0.0533677 0.00642133 0.480106
0.0451615 0.00762362 0.479996
0.023371 -0.00239 0.481122
0.0443081 -0.00850922 0.48187
0.0319722 -0.00010524 0.480451
0.0291765 -0.00151682 0.480861
0.0233147 -0.0320662 0.483274
0.0374924 -0.0173965 0.482094
0.0584347 -0.00800891 0.481805
0.0547978 -0.00500091 0.480553
0.0303895 -0.00161471 0.480348
0.0393615 -0.0194473 0.482303
0.0383672 -0.0154061 0.482889
0.0321994 -0.0265075 0.483864
0.0426881 -0.0129935 0.481546
0.0172185 -0.0142795 0.482086
0.0133426 0.00333642 0.480269
0.0182436 -0.0335073 0.483944
0.011387 -0.00738387 0.481733
0.0193287 -0.00434786 0.481089
0.0442716 -0.00228746 0.481011
0.0512393 -0.00928935 0.481139
0.0252333 0.000525555 0.480719
0.0372879 -0.0014339 0.480888
0.0499577 0.00618737 0.479493
0.0582595 -0.00439227 0.480993
0.0374637 0.0141075 0.478538
0.0472884 -0.00827685 0.481257
0.0243435 -0.0325479 0.48382
0.0281123 0.00178327 0.480767
0.0262201 0.0135592 0.479184
0.0294061 -0.00437847 0.480543
0.0562828 0.0174358 0.478892
0.0361644 -0.0324178 0.483767
0.0231873 -0.0343651 0.484273
0.0273274 -0.00138139 0.480999
0.0279864 0.0126502 0.479677
0.0241906 -0.00830588 0.481332
0.0417919 0.0138975 0.479848
0.0602001 0.0155119 0.479039
0.0442426 0.00395172 0.479469
0.0460603 -0.00148919 0.480871
0.0162762 -0.0262758 0.486146
0.0261093 0.0207223 0.478778
0.0493483 0.000724936 0.480816
0.0477063 0.00357809 0.479334
0.0278047 -0.0157848 0.482995
0.0411837 0.0170828 0.478557
0.0211693 0.00342934 0.480847
0.026171 -0.00437864 0.480561
0.0491893 -0.0283353 0.483333
0.0601897 0.0184792 0.478342
0.0421347 0.00246885 0.480925
0.0302292 0.0135385 0.479323
0.038268 -0.00335093 0.481081
0.0323128 0.00157196 0.480828
0.0323656 -0.000463115 0.480986
0.0342224 0.0144939 0.47902
0.044319 -0.0284245 0.483312
0.00624545 0.0155099 0.479744
0.0200338 0.0176465 0.479052
0.0362308 -0.014568 0.48137
0.0403599 -0.00500094 0.480556
0.0404998 -0.0104121 0.48185
0.0283152 -0.00338632 0.481042
0.0293575 -0.00638649 0.481789
0.0572493 -0.000316397 0.480426
0.022259 -0.000545598 0.48102
0.0293509 -0.0275046 0.483279
0.0242729 -0.0135389 0.481425
0.0662657 -0.0203784 0.48301
0.0471361 0.0255826 0.477959
0.0364025 -0.0123814 0.481991
0.0567891 -0.00101799 0.480552
0.0424506 -0.00251749 0.481682
0.0398509 -0.00624386 0.480421
0.0323825 -0.00135059 0.480794
0.0386811 -0.014983 0.481349
0.0332116 0.0260736 0.47978
0.052564 0.00421011 0.480613
0.0333108 -0.00637882 0.481213
0.030367 -0.0268468 0.483955
0.0613566 0.0215342 0.478317
0.0162346 -0.0334671 0.484041
0.0282234 -0.00236028 0.480946
0.0360495 -0.0214073 0.482838
0.0256771 -0.026798 0.485342
0.038156 -0.00832088 0.481802
0.0373009 -0.00824874 0.481233
0.0632242 -0.0243872 0.483122
0.0295777 -0.0123639 0.481311
0.0313602 -0.0033864 0.481061
0.0293838 0.0236147 0.478158
0.0271476 0.0214716 0.478762
0.0354301 0.00395224 0.479532
0.0542922 0.0275822 0.477928
0.00552385 -0.00301746 0.481832
0.0247367 -0.00601114 0.481715
0.0282544 0.00321492 0.480713
0.0384327 -0.0123236 0.481361
0.0413138 -0.00836169 0.481357
0.0396887 -0.0143633 0.481473
0.02749 -0.00844509 0.481379
0.0510243 -0.00033367 0.480767
0.0441392 -0.0284839 0.483781
0.00637947 0.0154904 0.479142
0.0402744 -0.0254189 0.483205
0.0612572 0.0155939 0.478508
0.00876927 -0.00326731 0.48187
0.0402371 -0.00933065 0.48132
0.035329 0.0246235 0.478163
0.027428 -0.00744834 0.48187
0.0273841 0.02534 0.480008
0.0353921 0.00288286 0.480704
0.0127262 -0.00350677 0.480478
0.0442423 0.00221311 0.479466
0.0485873 0.0037127 0.480679
0.038158 -0.0212268 0.482391
0.0272902 0.00556587 0.47945
0.036212 -0.0264202 0.483209
0.0291083 -0.0194477 0.48283
0.0330144 -0.0290062 0.482345
0.050201 0.0256151 0.478026
0.0301924 0.000641469 0.480511
0.0382869 -0.00438356 0.481096
0.0273056 -0.00337634 0.480984
0.0424591 -0.00538797 0.481778
0.0624144 -0.0243236 0.483634
0.034256 0.0074909 0.479903
0.0531981 -0.00129776 0.480438
0.0192723 -0.0285769 0.484145
0.0334129 -0.000342538 0.480888
0.0302657 -0.0174054 0.482839
0.0432484 0.0194488 0.478317
0.0359063 0.0262029 0.477606
0.0344743 -0.00121679 0.480405
0.0373816 0.000475162 0.480271
0.0476077 -0.0127925 0.483374
0.0362915 -0.000520545 0.480888
0.0461715 0.00556477 0.48007
0.0364611 0.0141032 0.478394
0.00798133 0.00395215 0.479521
0.0401761 -0.008344 0.481336
0.0312736 -0.00450303 0.480551
0.0381896 -0.00947243 0.481889
0.0223722 -0.0063718 0.48131
0.0231899 0.00458427 0.480688
0.0399449 -0.0152388 0.481554
0.0283799 -0.00731051 0.481325
0.03244 0.0211418 0.478784
0.00925417 -0.011113 0.481125
0.0115031 -0.0147343 0.481372
0.0372568 0.00371259 0.480665
0.0669144 -0.0233726 0.482962
0.0335437 -0.0167778 0.48277
0.0452143 -0.0283704 0.483218
0.0620181 0.0164515 0.479121
0.0162248 -0.0352134 0.483865
0.0282265 -0.00401436 0.481654
0.0371993 -0.00740011 0.481892
0.00575865 -0.00226286 0.480598
0.0493113 0.00258101 0.480133
0.0395544 0.0269073 0.481356
0.0431641 -0.0154798 0.48129
0.0612959 -0.0224286 0.482389
0.0242088 0.0204728 0.47833
0.0393012 -0.000489361 0.480927
0.0124244 0.0204421 0.478441
0.00936591 -0.000407458 0.481043
0.0419436 0.0218014 0.478743
0.0282879 -0.00443116 0.481066
0.0391958 0.00956144 0.479849
0.0273044 -0.0172859 0.482998
0.0510865 0.0068264 0.480767
0.0362074 0.00459732 0.480194
0.0443003 -0.0164019 0.482222
0.0573281 -0.0283478 0.483901
0.0451159 -0.0304026 0.483803
0.0352956 0.00643443 0.479393
0.0104885 -0.00300965 0.480585
0.00801522 -0.0149894 0.481557
0.0293526 -0.00831921 0.481709
0.0312958 -0.00238879 0.480892
0.0409135 -0.0103672 0.481211
0.0327899 -0.0116499 0.482718
0.0231779 -0.0293987 0.483321
0.0112787 -0.00144579 0.480911
0.0222497 0.0202461 0.478827
0.0341227 -0.00325709 0.480361
0.0353846 -0.00919572 0.481874
0.028244 0.0124966 0.47923
0.0262604 -0.0275016 0.483224
0.0371672 0.0195681 0.47871
0.0133084 -0.00631076 0.481729
0.0472831 -0.00340368 0.480983
0.0503301 -0.031329 0.483971
0.0532218 0.00365853 0.48011
0.0583188 -0.0227864 0.482912
0.0313029 -0.00436484 0.481001
0.040776 0.00519492 0.479594
0.0342773 -0.00245599 0.480918
0.0112849 0.0155372 0.478846
0.0542146 0.0198611 0.479798
0.0323035 -0.00740449 0.481201
0.0414626 -0.0162775 0.482767
0.0421746 -0.0244132 0.483093
0.0579986 0.00847149 0.479438
0.0592273 0.0135085 0.479275
0.0261923 -0.000302123 0.480381
0.008198 -0.0111795 0.481303
0.0193253 -0.00340387 0.481007
0.0113649 0.00159668 0.480799
0.039347 0.0115087 0.47974
0.0302995 -0.00943385 0.481744
0.0403869 -0.0294106 0.483861
0.00502215 0.00771127 0.481592
0.00820689 -0.0213332 0.483048
0.0241978 0.0164541 0.478812
0.0477657 -0.0262629 0.482441
0.0521812 0.024613 0.477963
0.0372942 -0.000374825 0.480347
0.0182092 0.0234928 0.478296
0.0333031 -0.00338676 0.481101
0.0162425 0.022647 0.478272
0.0192417 -0.0306374 0.483937
0.033467 0.00165876 0.48077
0.0262761 0.00255418 0.480207
0.0432572 0.0216522 0.478186
0.036347 0.000538353 0.480982
0.0246878 0.00284169 0.480764
0.0352882 -0.00336811 0.480984
