ply
format ascii 1.0
comment Created by Open3D
element vertex 1638
property double x
property double y
property double z
end_header
0.0307011 0.00352634 0.382405
0.0667696 -0.000432223 0.384382
0.0366319 0.00651762 0.382144
0.0276627 0.034531 0.377308
0.0297344 0.0115697 0.381074
0.0636912 0.0236431 0.380397
0.0487106 0.0455967 0.376311
0.0450202 0.00734063 0.382321
0.0255079 0.0265815 0.378503
0.0205672 0.0255709 0.378481
0.0296519 0.00357713 0.382353
0.0852029 0.0139744 0.382747
0.0426993 0.00825917 0.382085
0.0644137 0.0238102 0.380393
0.0742809 0.0283234 0.380035
0.0417912 0.00767374 0.382145
0.0597733 0.0286464 0.379442
0.0297273 0.0475525 0.375286
0.0657255 0.00149145 0.384027
0.0836545 0.0196834 0.38177
0.0386871 0.00667505 0.382188
0.0186185 -0.00715092 0.383663
0.00761288 0.0175404 0.379285
0.00470192 0.00450151 0.381272
0.0805897 0.00862096 0.383432
0.0287416 -0.000489442 0.382967
0.0723977 0.000916442 0.384365
0.00760181 0.0167462 0.379411
0.0268638 0.0464291 0.375357
0.0306682 0.0004932 0.38288
0.0296638 0.00965302 0.381371
0.0716789 0.0258039 0.380338
0.0314904 0.0103961 0.381318
0.0256569 0.0583534 0.373393
0.0145576 0.0187986 0.379336
0.0736337 0.0285625 0.379965
0.0816065 0.0215416 0.381389
0.00468013 0.00553259 0.381101
0.0174511 -0.00277911 0.382911
0.068759 0.000507303 0.384291
0.0109014 -0.00536715 0.383081
0.00864304 -0.000460897 0.382209
0.0826808 0.0104696 0.383206
0.010388 6.51244e-05 0.382188
0.0277511 -0.00242911 0.383235
0.060698 0.00441501 0.383361
0.00289077 0.0105846 0.380218
0.0578669 0.030542 0.379055
0.0798879 0.00857628 0.383405
0.00661396 0.0115411 0.380202
0.00590239 0.0155754 0.379527
0.0827186 0.015555 0.382387
0.0318125 0.0115697 0.381134
0.0136893 -0.00546376 0.383196
0.0146599 -0.00340571 0.3829
0.0366141 0.0424343 0.37635
0.0755879 0.0265239 0.380356
0.0296371 -0.00142324 0.383138
0.0198134 0.0248352 0.378552
0.0277596 -0.00332574 0.383373
0.0596892 0.00451005 0.383301
0.0210102 0.0274951 0.378167
0.0196645 -0.00539233 0.383401
0.0325817 0.00358498 0.382439
0.0336026 0.0413485 0.376407
0.0518282 0.0395385 0.377375
0.0576095 0.0165948 0.381277
0.0386958 0.00845574 0.381882
0.0257799 0.0165403 0.380102
0.0197578 -0.00445371 0.383252
0.0266635 0.0174616 0.379986
0.0499636 0.0101062 0.382034
0.0807214 0.020629 0.381487
0.0376571 0.00581611 0.382264
0.0186997 -0.00543889 0.383367
0.00973664 0.0174857 0.379349
0.0808891 0.0156184 0.382296
0.080769 0.0105587 0.3831
0.0266532 0.0156346 0.38027
0.0287304 -0.001476 0.383095
0.0286213 0.0365469 0.37698
0.00667726 0.000528382 0.381951
0.0326791 0.00544288 0.382128
0.0198604 0.0256693 0.378401
0.0255845 0.0286983 0.378126
0.0297098 0.00453696 0.382162
0.00952853 -0.00153622 0.382388
0.0316333 0.00956438 0.381424
0.0252751 0.0574889 0.373485
0.0496159 0.00768118 0.382395
0.00683524 0.0105712 0.380338
0.0346321 0.00431557 0.382378
0.0216999 -0.00445547 0.383305
0.017616 -0.00649961 0.383481
0.00373163 0.00650023 0.380875
0.0597534 0.0223432 0.380413
0.0675376 0.0296585 0.379527
0.0128208 -0.00616816 0.383249
0.075465 0.0228557 0.380914
0.0197107 -0.00351971 0.383079
0.028707 0.00352644 0.38228
0.0327844 0.0105448 0.381303
0.0257343 -0.00340008 0.383282
0.0154379 -0.00709412 0.383492
0.0815992 0.0155396 0.382315
0.0767429 0.0276389 0.380188
0.0106629 -0.00453159 0.3829
0.0807575 0.00453907 0.384049
0.0676492 0.00148512 0.384052
0.0676536 -0.00131575 0.384501
0.0297232 0.0105019 0.381191
0.0207333 -0.00541705 0.383414
0.0468292 0.0454807 0.376204
0.0826599 0.0207503 0.381512
0.0127321 0.018536 0.379266
0.0777724 0.026829 0.380352
0.0797361 0.0206255 0.381422
0.0500076 0.0588544 0.374172
0.0313396 0.0608715 0.373153
0.0706295 0.000563458 0.384307
0.0836128 0.00934447 0.383378
0.0364486 0.00486521 0.382342
0.00872343 -0.0014539 0.382326
0.07971 0.00352481 0.384167
0.0505157 0.0101126 0.382021
0.0187085 -0.00446117 0.383179
0.0199255 -0.00705752 0.38364
0.0367764 0.00560895 0.382231
0.0817492 0.00952596 0.383274
0.079691 0.00267533 0.384299
0.0697245 0.000606659 0.38426
0.0845052 0.0105647 0.383209
0.0824743 0.00560489 0.38393
0.0117757 0.0175313 0.379383
0.0626713 0.00457801 0.383358
0.0763415 -7.93885e-05 0.384615
0.0175086 0.0245651 0.378465
0.0786536 0.00252162 0.384282
0.0596628 0.00341812 0.383431
0.0556251 0.00893387 0.382391
0.0826714 0.00956045 0.383297
0.0816967 0.00847372 0.383435
0.0238002 0.0225094 0.379026
0.0535178 0.0587082 0.374312
0.00365647 0.00551134 0.381006
0.0116987 -0.00549285 0.383073
0.0586833 0.00957044 0.382399
0.00571254 0.000564457 0.381876
0.0276902 0.030583 0.377869
0.0396577 0.0427668 0.376356
0.0806839 0.0165308 0.382098
0.023149 0.0248579 0.378619
0.01781 -0.00437882 0.383119
0.0722777 0.00155139 0.384192
0.00458978 0.00142145 0.381693
0.0542893 0.0485963 0.37596
0.0317171 0.00356541 0.382355
0.070615 0.0247728 0.380394
0.0717357 0.000467996 0.384341
0.0206617 -0.00341503 0.383065
0.00666762 0.00558554 0.381098
0.0423803 0.00794721 0.382046
0.0326621 0.00954224 0.381427
0.0766782 0.0262487 0.38038
0.0812793 0.0206824 0.381445
0.0507721 0.00777573 0.382385
0.0554398 0.0406576 0.377274
0.0517783 0.058438 0.37428
0.0227312 0.0221316 0.379033
0.0245915 0.0197108 0.379491
0.0326476 0.00454552 0.382227
0.00659316 0.00456376 0.381254
0.0626547 0.0234578 0.380303
0.0524023 0.00434695 0.382993
0.0345148 0.0103279 0.381366
0.0245373 0.0258719 0.378496
0.0215626 0.0222918 0.37896
0.0105021 -0.000388809 0.382193
0.0216947 -0.0034751 0.383105
0.00765736 -0.00146477 0.38226
0.0106949 0.0174865 0.379327
0.0456363 0.0445789 0.376272
0.0462352 0.00770416 0.382218
0.0567664 0.00843658 0.382492
0.0606252 0.00349744 0.383429
0.030537 0.0094873 0.381346
0.00569934 0.00447777 0.381226
0.00373855 0.00453867 0.381143
0.0576868 0.00613035 0.382894
0.0247636 0.0525897 0.374203
0.00882196 0.0167269 0.379372
0.0176889 -0.00541505 0.38326
0.0336546 0.00453605 0.382253
0.0358023 0.00461894 0.382318
0.0344641 0.00983781 0.381429
0.0535647 0.0464537 0.376252
0.0137244 -0.00630351 0.383248
0.0568089 0.0164651 0.381191
0.0334854 0.00964854 0.381418
0.0210727 0.018871 0.379474
0.0507104 0.0585566 0.374199
0.0750879 0.000977707 0.384359
0.0256825 -0.00431581 0.383371
0.0236673 0.0266881 0.378313
0.0528107 0.0396393 0.377315
0.019796 0.0196872 0.379292
0.056455 0.0108046 0.382083
0.0686032 -0.0004502 0.384343
0.00588792 0.00869471 0.380539
0.0584044 0.0167356 0.3812
0.0496623 0.00834619 0.382223
0.0278121 0.014715 0.380385
0.0312807 0.0359259 0.377104
0.0785041 0.0204858 0.381342
0.00658542 0.00354875 0.381387
0.0688131 -0.00112287 0.38445
0.0526014 0.00760567 0.382444
0.0276476 0.0154795 0.38025
0.0285056 0.0416989 0.376068
0.0303132 0.0349597 0.377218
0.0216478 -0.00546026 0.383391
0.0176401 -0.00352628 0.382931
0.0606877 0.0224121 0.380363
0.058898 0.0236986 0.380087
0.033747 0.00354451 0.38239
0.00729724 0.00364864 0.381389
0.0730012 0.0228611 0.380745
0.0227403 -0.00447696 0.383268
0.0239716 0.0196937 0.379429
0.0295312 0.0465935 0.375312
0.00570539 -0.000393663 0.381976
0.00461845 0.0154342 0.379392
0.0282943 0.0162699 0.380138
0.0117805 -0.00127094 0.382341
0.0847496 0.0154572 0.382366
0.0296557 -0.00050517 0.382882
0.00570792 0.00352573 0.381343
0.0227073 -0.00541985 0.383412
0.0394435 0.040181 0.376705
0.0137143 -0.00451061 0.38293
0.0791748 0.0197598 0.381465
0.0197894 -0.00642575 0.383464
0.0822992 0.00491572 0.383966
0.0278645 0.00242249 0.382341
0.0303789 0.0392609 0.376511
0.0156844 -0.00651786 0.383321
0.0245359 0.0264447 0.378352
0.0358133 0.0415467 0.376344
0.0488581 0.00959844 0.381963
0.0387186 0.0426686 0.376271
0.0536561 0.0077348 0.38244
0.0240957 0.0313788 0.37754
0.0796065 0.00671668 0.383568
0.0323112 0.0368244 0.37697
0.0587895 0.00369878 0.383278
0.0726094 -0.000685199 0.384496
0.0715892 0.0291156 0.379667
0.0844171 0.0095965 0.38328
0.0769583 0.0257135 0.380413
0.00389475 0.00350694 0.381263
0.0696166 -0.00136214 0.38449
0.0124991 0.0177632 0.379289
0.058335 0.0153419 0.381382
0.0126727 -0.00548404 0.38303
0.0266733 0.00111288 0.38249
0.0515553 0.00765016 0.382365
0.0141243 0.0230626 0.378495
0.0288234 0.00261942 0.382327
0.0528124 0.00691948 0.382528
0.0187705 -0.00645278 0.38341
0.0284442 0.0153912 0.380256
0.00670601 0.00267105 0.381491
0.0456526 0.0435933 0.376363
0.0784184 0.00171601 0.384313
0.0450717 0.0630089 0.373219
0.0257998 0.0196515 0.37947
0.0777772 0.0015572 0.384312
0.00775165 0.0153744 0.379485
0.0640983 0.0297754 0.379266
0.00954882 -0.00227356 0.382387
0.0805586 0.00353584 0.384095
0.0548787 0.0143297 0.381403
0.0356464 0.00552042 0.382103
0.0535574 0.0394159 0.377321
0.0760387 -0.000101652 0.384508
0.00426668 0.0084197 0.380468
0.0255727 0.0333499 0.377254
0.081614 0.0146083 0.38235
0.0435381 0.0434185 0.376301
0.0598469 0.00290086 0.383419
0.0706582 -0.000405524 0.384353
0.0732995 -0.000313265 0.384435
0.0296895 0.00252278 0.382356
0.0278306 0.0593805 0.373148
0.0576173 0.0147558 0.381428
0.0588988 0.024569 0.379898
0.0605466 0.0063862 0.382879
0.0789361 0.00651706 0.383542
0.00458625 0.00352786 0.381256
0.0527252 0.00859773 0.382231
0.0336851 0.0105278 0.381212
0.0263121 0.0245033 0.378691
0.0171025 0.0738566 0.370416
0.0560021 0.0153871 0.381259
0.0548322 0.00775555 0.382442
0.0682299 0.0246736 0.380221
0.0247662 -0.00529402 0.383419
0.0268352 0.033503 0.377261
0.0433584 0.00825924 0.381931
0.0653633 0.029458 0.379342
0.0579501 0.0295336 0.379052
0.0357015 0.00944899 0.381452
0.00874404 0.0157124 0.379441
0.0606396 0.0215347 0.380436
0.0147216 -0.00638766 0.383215
0.0287101 -0.00247648 0.383107
0.0216882 0.0195458 0.379306
0.0635198 0.00311673 0.383501
0.0236767 -0.00534853 0.383374
0.0245956 0.0318673 0.377427
0.0288188 0.00156133 0.382455
0.060358 0.0284605 0.379304
0.0808016 0.00755366 0.383425
0.083788 0.00858716 0.383368
0.0676947 0.0246448 0.380186
0.0326759 0.0372205 0.376861
0.0746832 0.025746 0.380265
0.0377992 0.0425887 0.376184
0.00673628 -0.00147214 0.382108
0.0742305 -0.000868372 0.384522
0.0086821 -0.00243236 0.382334
0.0827465 0.0215537 0.381234
0.0534578 0.0109998 0.38184
0.0286023 0.0145812 0.380339
0.0592199 0.00836198 0.382476
0.0466573 0.0447082 0.376166
0.0549479 0.0107815 0.381926
0.0484511 0.00828682 0.382085
0.0809645 0.0145554 0.382286
0.0832467 0.0211836 0.381305
0.081008 0.00662121 0.383561
0.0105105 -0.00249395 0.382404
0.0235557 0.0186369 0.379492
0.0616843 0.0225406 0.380283
0.0357909 0.00896524 0.381499
0.0528384 0.0126642 0.381538
0.0227457 0.0193556 0.379343
0.0152487 0.0228704 0.378497
0.0697498 -0.000436088 0.384267
0.0537475 0.0457254 0.376249
0.032615 0.00255998 0.382399
0.0537487 0.0514779 0.375323
0.0297814 0.00171752 0.382429
0.0154737 0.0236518 0.37837
0.00395208 0.00269504 0.381308
0.00964737 0.0166039 0.379285
0.0167037 0.0234881 0.378441
0.0625331 0.00317249 0.383411
0.0260108 0.000258149 0.38252
0.0185351 0.0236476 0.378483
0.00772072 -0.00243467 0.382272
0.0760506 0.000589548 0.384327
0.00338173 0.00823409 0.38039
0.0333029 0.0376512 0.376776
0.0306574 0.00273218 0.382288
0.053781 0.00814717 0.382278
0.030512 0.047395 0.375104
0.0293774 -0.00223899 0.383035
0.0766625 0.000537258 0.384347
0.0514648 0.0514866 0.375217
0.0616587 0.00358626 0.383294
0.0264825 -0.00445118 0.383277
0.0236192 0.0258543 0.378298
0.019543 -0.00709548 0.383438
0.0138799 0.0225803 0.378457
0.0167021 -0.00645731 0.383227
0.026516 0.0326504 0.377307
0.0116186 -0.00266682 0.382428
0.0717391 -0.000450721 0.384307
0.0168791 -0.00721179 0.383352
0.0567036 0.013716 0.381469
0.0555413 0.00735491 0.382448
0.0148249 0.0234124 0.378351
0.0794373 0.00195093 0.384204
0.0834377 0.0206487 0.381344
0.00264324 0.00998434 0.380052
0.0309965 0.00857707 0.381332
0.0603865 0.00585342 0.382863
0.0328765 0.0419189 0.376042
0.0155939 0.0186561 0.379137
0.027068 0.01499 0.380153
0.0825729 0.00853732 0.383254
0.046678 0.0645043 0.372924
0.0306967 0.00158783 0.38244
0.0171129 -0.00573761 0.383111
0.0233301 -0.00619035 0.383414
0.0810554 0.0136017 0.38238
0.0607581 0.00267156 0.383381
0.0264775 0.000808154 0.382405
0.0705721 -0.00145338 0.384407
0.0128452 -0.00251813 0.38243
0.0836003 0.0145968 0.382311
0.071279 0.0290733 0.379522
0.0139087 -0.00254039 0.382467
0.0255832 -0.00517745 0.383325
0.0305981 1.24305e-05 0.382677
0.0701853 0.0230404 0.380449
0.00954491 -0.00359441 0.382472
0.0519785 0.045206 0.376208
0.0814359 0.00391428 0.383937
0.0295381 0.00855989 0.381258
0.0842287 0.00877417 0.383254
0.0527113 0.0583252 0.374117
0.0277522 0.00161489 0.382302
0.0495977 0.0646257 0.372986
0.0321757 0.040901 0.376148
0.00462995 0.00257259 0.381282
0.0186686 -0.00719386 0.383372
0.0807946 0.0196165 0.381373
0.0207172 -0.00663278 0.383357
0.0274192 0.0299197 0.377728
0.00478456 0.00162453 0.381433
0.0579212 0.0153566 0.381201
0.084982 0.0145823 0.382329
0.0836561 0.0194811 0.381491
0.00954141 0.0157027 0.37934
0.0645159 0.0295203 0.379164
0.0430875 0.0642863 0.372779
0.0256387 0.0514768 0.374188
0.0294463 0.0402817 0.376128
0.0595123 0.0076595 0.382489
0.00268675 0.00839794 0.380254
0.0796894 0.0194406 0.381341
0.0815427 0.0136024 0.382348
0.0396244 0.0069006 0.381859
0.0216015 -0.00650667 0.383343
0.0285516 0.0522957 0.374149
0.0346115 0.00380444 0.382167
0.0123825 -0.00166003 0.382218
0.0304274 0.0596918 0.373029
0.0114926 0.0221484 0.378358
0.0537256 0.00642378 0.382454
0.00289818 0.00694912 0.380477
0.0803424 0.00280936 0.384019
0.00307358 0.0132425 0.379467
0.00656684 0.0153771 0.379254
0.0171225 0.0247181 0.378142
0.0316553 0.00266184 0.382226
0.0148678 -0.00696943 0.383146
0.0812718 0.0075233 0.383287
0.00282584 0.00761505 0.380352
0.0466726 0.0635775 0.372989
0.00693457 -0.00222283 0.382084
0.0386899 0.00877722 0.381497
0.0617132 0.00269741 0.383328
0.005762 0.00256969 0.381266
0.0528308 0.0452573 0.376156
0.0247837 -0.000795544 0.382512
0.0143692 -0.00421188 0.382671
0.0565814 0.0156318 0.381051
0.0256785 0.0463388 0.374966
0.0318698 0.04139 0.375989
0.0144002 -0.00561799 0.382893
0.0497074 0.0446232 0.376128
0.0507896 0.0535675 0.374729
0.00790522 -0.0032995 0.382273
0.0259044 0.0325461 0.377181
0.00482378 0.0147713 0.379252
0.0525 0.00961964 0.381852
0.0488748 0.0442884 0.376142
0.0714983 -0.00135212 0.384319
0.0317144 0.0085538 0.381247
0.0286841 0.0585798 0.373094
0.0774281 0.000685473 0.38421
0.0105702 -0.00351283 0.382393
0.0225162 0.0249629 0.37826
0.0588302 0.0224496 0.380015
0.00680511 0.00970499 0.380127
0.030793 0.0355133 0.376871
0.0284281 -0.00326144 0.383013
0.0207497 0.024457 0.378271
0.0834613 0.00770479 0.383296
0.0794481 0.00768791 0.383149
0.0471324 0.0652376 0.372697
0.0227653 0.018652 0.379277
0.0366025 0.00938484 0.381281
0.028835 0.039443 0.37616
0.00564468 0.0145385 0.379299
0.0588402 0.0345932 0.378054
0.00455241 0.010315 0.379936
0.0247113 0.0584052 0.372957
0.00385728 0.0144225 0.379248
0.062706 0.00266018 0.383325
0.0588936 0.00871024 0.382208
0.0219028 0.018896 0.379195
0.0287441 0.0452624 0.37521
0.0276642 0.0583943 0.373059
0.0337838 0.0406489 0.376137
0.030927 0.0604985 0.372839
0.0296165 0.033968 0.377054
0.0757469 0.025599 0.380115
0.00606345 0.00976072 0.380067
0.0596378 0.021735 0.380135
0.0809781 0.0126771 0.382384
0.0227769 -0.00632846 0.383273
0.0492634 0.0652472 0.372752
0.0703084 0.0292113 0.379326
0.0107418 0.020353 0.378533
0.0597089 0.0275708 0.379192
0.00875156 -0.00325403 0.382249
0.0273851 0.0336701 0.377006
0.0466676 0.0397941 0.376737
0.0167345 -0.00291199 0.382485
0.0694558 0.0293854 0.379254
0.0527712 0.0389383 0.377097
0.0765511 -5.83605e-05 0.384246
0.0447943 0.0437188 0.376027
0.0795502 0.0255695 0.380236
0.0300076 0.0414513 0.375838
0.0313489 0.0360873 0.376749
0.0291003 0.00551502 0.381577
0.0556418 0.014552 0.381111
0.0320895 0.0391609 0.376279
0.0826949 0.0145196 0.38212
0.0323821 0.00854315 0.381208
0.00783531 0.00247773 0.381266
0.0230924 -0.00212085 0.382573
0.0273502 0.0180676 0.379486
0.0111152 0.0220208 0.378246
0.0644763 0.00251457 0.383366
0.0228934 0.0258444 0.378068
0.04759 0.0624104 0.373107
0.0565083 0.0147096 0.381103
0.0323706 0.00193437 0.382255
0.0556656 0.0386888 0.377215
0.0658277 0.0285775 0.379218
0.0314195 0.0462858 0.375089
0.0653471 0.0017784 0.383503
0.0539061 0.0444152 0.376223
0.0604496 0.00670156 0.382527
0.029622 0.0137611 0.380245
0.0249444 0.0326726 0.377024
0.0249262 0.0331576 0.376945
0.0262685 0.0264864 0.378064
0.0046594 0.00742365 0.380322
0.0288483 0.0558876 0.373432
0.0387464 0.0677928 0.371887
0.0106166 0.0164664 0.379088
0.0268013 0.0285192 0.377752
0.0239386 0.0524883 0.373792
0.0540396 0.0598048 0.373735
0.0274342 0.0605911 0.372617
0.0504742 0.0448796 0.375999
0.0397168 0.067548 0.371955
0.02935 0.039634 0.376046
0.0263112 0.0225409 0.378679
0.0175739 -0.00732673 0.383148
0.0246266 0.0574163 0.373005
0.00830468 0.0199325 0.378419
0.0257116 -0.000447337 0.38234
0.00848417 0.0117848 0.379732
0.0408447 0.0427882 0.375952
0.00830445 0.0201171 0.378385
0.00832231 0.00215967 0.381268
0.0749877 0.0245839 0.380144
0.0501562 0.0502105 0.375098
0.0364006 0.0413843 0.376004
0.00494283 0.0135121 0.379309
0.0265244 0.0203094 0.379018
0.0546927 0.0386354 0.37712
0.0586073 0.0284287 0.378906
0.0285892 0.0516319 0.374059
0.0556387 0.0136672 0.381166
0.0741832 0.00157272 0.383799
0.0460889 0.00848321 0.381642
0.00757165 0.00160719 0.381312
0.0294219 0.00746073 0.381184
0.0264962 0.0513245 0.374024
0.0497375 0.0635075 0.372929
0.0265443 0.0277732 0.37781
0.0266755 0.0585226 0.372869
0.0297968 0.0343739 0.376865
0.0554614 0.0394191 0.377008
0.0545131 0.0586022 0.373884
0.0584699 0.0144588 0.381124
0.0217062 0.0244417 0.378151
0.0179447 -0.00292476 0.382408
0.0805591 0.0247089 0.380296
0.0325879 0.0404676 0.375978
0.062451 -0.00121061 0.383785
0.07456 0.00216855 0.383692
0.0306474 0.0415686 0.375725
0.0199691 -0.00321499 0.382525
0.0299676 0.0593103 0.372844
0.0250567 0.0473285 0.374586
0.0508621 0.0573983 0.373928
0.0262731 0.0255443 0.378131
0.0490086 0.0438054 0.376042
0.0587725 0.0274803 0.379025
0.0615063 0.0215826 0.380074
0.0203428 -0.0028448 0.382469
0.05466 0.00836908 0.381939
0.0634138 0.00276747 0.38316
0.0504821 0.0565587 0.374033
0.0262934 0.0236364 0.378422
0.0317119 0.00140344 0.382196
0.00601321 0.00764348 0.380236
0.00677438 0.0145561 0.379151
0.0265324 0.0453893 0.37493
0.0227426 0.0221122 0.37853
0.0518004 0.0575975 0.373907
0.0199992 -0.00291289 0.382448
0.018825 0.0188353 0.378909
0.0432575 0.063866 0.372579
0.0825922 0.0136675 0.382108
0.0715463 0.00227344 0.383525
0.00569572 0.00173732 0.381161
0.0210583 0.0276727 0.377562
0.0138459 -0.00331383 0.382274
0.0785743 0.00562965 0.38324
0.0504707 0.0507157 0.374949
0.0262364 -0.00509437 0.383011
0.0295403 0.0143419 0.380008
0.011942 -0.00314461 0.382163
0.0326734 0.0396267 0.376058
0.0469356 0.0626494 0.372887
0.0726821 0.0288094 0.379281
0.0555303 0.0344854 0.37773
0.0289875 0.03337 0.376919
0.0323496 0.0451328 0.375152
0.0586917 0.0215235 0.379925
0.0305351 0.0466088 0.374845
0.0285782 0.0533135 0.373694
0.0375415 0.00886761 0.381169
0.0309822 0.00770447 0.381112
0.0527857 0.0369145 0.377226
0.0506747 0.00668295 0.382003
0.0276908 0.0513276 0.373971
0.0717046 0.0243485 0.379945
0.00669401 0.00846901 0.380078
0.044863 0.0632574 0.372689
0.0159857 0.0240684 0.377907
0.0562161 0.0384498 0.37709
0.0826211 0.00748764 0.383046
0.0379565 0.0677583 0.371698
0.0193854 0.0233666 0.378138
0.0547724 0.013512 0.381038
0.0538519 0.0124219 0.381176
0.0581207 0.0196755 0.380168
0.0725425 -0.00119492 0.384058
0.0258467 0.0255222 0.378022
0.0669175 0.0285849 0.379055
0.0316514 0.00771093 0.381097
0.029672 0.0586001 0.372844
0.0318683 0.0455958 0.375016
0.0817526 0.0233849 0.380441
0.0256509 0.0185639 0.379128
0.0487753 0.0622994 0.372958
0.0177343 -0.00324462 0.382331
0.0375348 0.0397811 0.376153
0.0274609 0.000659685 0.382065
0.0233297 -0.00203979 0.38234
0.0588484 0.0338368 0.377894
0.0346021 0.0406507 0.375895
0.0247178 0.0183901 0.379104
0.0235227 0.0244076 0.378093
0.0284377 0.032544 0.376965
0.0444863 0.00828159 0.381461
0.0817748 0.00661173 0.383115
0.0264328 0.0315219 0.377052
0.00375425 0.00724408 0.380109
0.0528758 0.0516135 0.374801
0.0382146 0.0399251 0.376134
0.0409671 0.00522361 0.381812
0.0312843 0.060957 0.372494
0.0577659 0.00740662 0.382083
0.026507 0.0213636 0.378674
0.0414896 0.0427315 0.375796
0.033424 0.00270719 0.381927
0.0586588 0.020546 0.379998
0.0248763 -0.00138739 0.382266
0.00946993 0.014763 0.379097
0.0241723 0.0565832 0.372918
0.059771 0.0167425 0.380645
0.054455 0.045525 0.375818
0.0804799 0.0184979 0.38113
0.0321933 0.0370242 0.376354
0.0470436 0.0618754 0.372912
0.0365071 0.0673154 0.371644
0.0516674 0.0446847 0.375845
0.0580091 0.0297829 0.378476
0.0328214 0.0661527 0.371692
0.0559224 0.00335191 0.382643
0.0345641 0.0667501 0.371659
0.0244233 0.0514352 0.373743
0.0271955 0.0296934 0.37734
0.083689 0.0136456 0.38202
0.0353045 0.0637938 0.372158
0.0500689 0.0574794 0.373721
0.031751 0.0384612 0.376094
0.0398034 0.0666006 0.371864
0.0465196 0.0673844 0.371988
0.0266756 0.0194802 0.378948
0.0367387 0.0667986 0.371715
0.0525866 0.0622058 0.373041
0.0439142 0.0404022 0.376222
0.0241422 0.0555596 0.373048
0.00961004 -0.00444171 0.382148
0.0259478 0.0505843 0.373911
0.0268131 0.0185662 0.379089
0.0405105 0.00834257 0.381237
0.0286122 0.013385 0.379982
0.0442615 0.0405808 0.376191
0.0103746 -0.00026797 0.381494
0.035636 0.0671619 0.371594
0.0430887 0.00827882 0.381334
0.0549933 0.051452 0.374837
0.0295779 0.000270516 0.382117
0.0378418 0.0666612 0.371754
0.0623457 0.0277564 0.378916
0.050746 0.0101439 0.381314
0.0567244 0.0336641 0.377755
0.0353867 0.038948 0.376106
0.0167422 -0.00365673 0.382253
0.0546077 0.0574698 0.373837
0.0286143 0.000460123 0.382031
0.0590679 0.0245178 0.379295
0.0116534 0.0167672 0.378776
0.0675987 0.0229265 0.379868
0.0468154 0.0399489 0.376357
0.0307902 0.0384146 0.376007
0.0594435 0.0205895 0.379935
0.0335861 0.0662702 0.371631
0.0420213 0.00741611 0.381402
0.0146732 0.0178994 0.3787
0.0286844 0.0567528 0.372975
0.0285821 0.0127003 0.380051
0.0500121 0.0495323 0.374928
0.0800257 0.0188466 0.380975
0.0240271 0.0513735 0.373664
0.0276717 0.0135998 0.379869
0.0327399 0.0112155 0.38044
0.0134653 0.0172479 0.378753
0.0240339 0.0507103 0.373769
0.0708993 0.0289256 0.379013
0.0516744 0.0503572 0.374852
0.0645156 -0.00140893 0.383649
0.0243744 0.0506169 0.373794
0.0064677 0.00746453 0.380062
0.0496505 0.0432723 0.375913
0.0266583 0.0503436 0.373921
0.039612 0.0404454 0.375992
0.0498672 0.00660803 0.381811
0.0589701 0.0255572 0.379104
0.0648693 0.0282067 0.378896
0.0316963 0.0654812 0.371669
0.0192603 0.0176468 0.378892
0.0496581 0.0624798 0.372818
0.010674 -0.00450165 0.382131
0.0318892 0.00643983 0.38116
0.0567916 0.0326327 0.377877
0.0655157 0.0235824 0.379656
0.0843801 0.0184931 0.381175
0.0644293 -0.00200553 0.383727
0.0440294 0.0421367 0.375874
0.00356983 0.00648826 0.380095
0.0262935 0.0221336 0.378424
0.0406219 0.0674512 0.371673
0.0349674 0.0653823 0.371795
0.0175887 0.0176435 0.37882
0.0502184 0.0634319 0.372675
0.0335729 0.037914 0.376156
0.0756101 0.0245435 0.379867
0.0745763 0.0282119 0.379236
0.0209997 0.0235255 0.377996
0.0269774 0.0138516 0.379772
0.0154133 -0.00382911 0.382184
0.053577 0.0382753 0.376836
0.0405477 0.0665828 0.3718
0.0845359 0.0136705 0.38194
0.0388018 0.0665067 0.371747
0.027712 0.0505134 0.373903
0.035221 0.00373909 0.381699
0.0499725 0.0386134 0.376642
0.0121173 -0.00755003 0.382652
0.0437191 0.00591351 0.381664
0.0457017 0.0678072 0.37179
0.0274155 0.0306495 0.37708
0.052893 0.0115508 0.381096
0.0190623 0.0176452 0.378857
0.0517865 0.0565055 0.373829
0.0338048 0.0656806 0.371684
0.0236636 0.0294811 0.377124
0.0769288 0.0247407 0.379866
0.00567336 0.013643 0.378998
0.065059 0.0220209 0.37986
0.0649385 0.0228002 0.379731
0.065875 0.0223475 0.379837
0.06379 0.0213355 0.37992
0.0327826 0.0658183 0.371616
0.0738024 0.024427 0.379793
0.0526101 0.050559 0.374804
0.0498457 0.0595562 0.373255
0.0595706 0.015953 0.380624
0.0715993 0.0230092 0.379934
0.0296791 0.0643932 0.371723
0.0261233 0.0312867 0.376911
0.0290662 0.00422976 0.381368
0.00773912 0.0196522 0.378093
0.0596529 0.0332283 0.377842
0.0299243 0.0452838 0.374794
0.0572792 0.0365232 0.37722
0.024491 0.0566724 0.372762
0.0720535 0.0232044 0.379908
0.0826853 0.0194908 0.380899
0.0513806 0.0632115 0.372704
0.0383796 0.0406727 0.375842
0.054106 0.0377607 0.376895
0.0538676 0.0503275 0.374863
0.0606161 0.0252202 0.379147
0.0480491 0.0607852 0.372963
0.00467391 0.000582385 0.381023
0.0544827 0.044361 0.37584
0.0258612 0.0566168 0.372803
0.0287675 -0.00398207 0.38265
0.0509326 0.0492874 0.374912
0.00770143 0.0146495 0.378871
0.0381178 0.0406707 0.37582
0.054269 0.0586122 0.373537
0.0356963 0.0653697 0.37176
0.0775175 0.0257474 0.379681
0.054884 0.00645189 0.381939
0.0508627 0.0485372 0.375024
0.0626847 0.00169477 0.382991
0.0346957 0.0386721 0.376006
0.0463584 0.0636466 0.372425
0.0298776 0.0637318 0.371797
0.0477507 0.0615324 0.372815
0.0260385 0.0444377 0.374753
0.0533635 0.0612443 0.373069
0.0275844 0.0576267 0.372691
0.0588713 0.0264916 0.378857
0.0349471 0.0671327 0.371433
0.0665777 0.00143269 0.383167
0.0244979 0.0494395 0.373886
0.0807731 0.0176638 0.381086
0.0127901 -0.00354412 0.381965
0.0496405 0.0615973 0.372866
0.0223508 0.0220248 0.378209
0.0446939 0.0426073 0.375732
0.0293213 0.0495842 0.374037
0.0454606 0.0681357 0.371656
0.0335139 0.0443019 0.375042
0.0774111 0.0248375 0.379803
0.0817077 0.0125642 0.381934
0.0263761 0.057414 0.372667
0.0496871 0.00942393 0.381246
0.0249861 0.0584415 0.372449
0.0266485 -0.000351013 0.381959
0.0317436 0.0644098 0.37174
0.00651188 0.00157525 0.380899
0.0471024 0.044336 0.375536
0.0435905 0.0672803 0.371716
0.0297399 -0.00047751 0.382091
0.04879 0.0453924 0.375425
0.0489397 0.0475367 0.375082
0.0504669 0.0421174 0.376009
0.0597221 0.0328645 0.377841
0.0306388 0.0644253 0.371686
0.0105279 0.0154372 0.378811
0.0366546 0.0654424 0.371746
0.0576488 0.0315479 0.377973
0.0266073 0.0565206 0.372805
0.0387761 0.00423298 0.38166
0.057129 0.0164158 0.380384
0.0248459 0.0485905 0.374012
0.0418385 0.0673229 0.371633
0.0306484 0.000362976 0.381978
0.073334 -0.00138781 0.383847
0.047092 0.0055195 0.381761
0.035626 0.0393961 0.375889
0.0357038 0.0645122 0.371855
0.00693264 0.0134162 0.378996
0.0307529 0.0637317 0.371796
0.064336 0.0297848 0.378501
0.0578819 0.0184615 0.380079
0.0246249 0.0302759 0.376942
0.0426614 0.0663271 0.371819
0.0506334 0.0554538 0.373861
0.0298547 0.0444826 0.374849
0.0586223 0.0195692 0.379923
0.0205834 -0.00722269 0.382813
0.0115519 -0.00450796 0.382041
0.0734234 0.0285421 0.37903
0.0529628 0.0572751 0.373651
0.011446 0.0156019 0.378803
0.0675845 0.0283071 0.37885
0.0487654 0.0425325 0.375862
0.0123824 0.0168503 0.378636
0.0358099 0.0672646 0.371402
0.0365535 0.039548 0.375883
0.0429113 0.0672239 0.371671
0.0517703 0.062685 0.37273
0.0284053 0.0574828 0.372696
0.0068513 0.00654559 0.38008
0.0547372 0.0354799 0.377208
0.0245055 0.0556385 0.372844
0.0447521 0.0636739 0.372303
0.0516238 0.049458 0.374843
0.0393131 0.0656551 0.371782
0.0748802 0.0233665 0.379901
0.0815507 0.0193929 0.380787
0.0240333 0.0544715 0.373009
0.0623059 0.0218788 0.379671
0.0336617 0.0644741 0.371758
0.0543484 0.0125423 0.380873
0.0416668 0.0666154 0.37171
0.0275909 0.0374278 0.375877
0.013366 0.0164616 0.378717
0.0537151 0.0572291 0.373666
0.0710278 0.0237809 0.379685
0.0280778 0.0444392 0.374766
0.0469223 0.0432793 0.375652
0.0268785 0.0387053 0.375641
0.0428637 0.0408085 0.375897
0.0475077 0.0433133 0.375665
0.0325098 0.0077417 0.380823
0.0607582 0.0203937 0.379839
0.0527921 0.0565138 0.373735
0.0273771 0.0173749 0.37908
0.0633447 0.0223997 0.37961
0.0527097 0.0446401 0.37564
0.0577264 0.0135938 0.380815
0.0146952 -0.00378261 0.382004
0.0277756 0.045198 0.374619
0.0257662 0.0244627 0.377876
0.0676078 -0.00220424 0.383716
0.0292792 0.0339167 0.376485
0.050894 0.0626274 0.372674
0.076845 0.0235332 0.379922
0.073842 0.0239321 0.379744
0.0545819 0.0565111 0.373789
0.0236322 0.0227712 0.37806
0.0487018 0.0615962 0.372753
0.0493559 0.0482449 0.374922
0.0280398 0.0634245 0.371689
0.0437893 0.0665678 0.37177
0.0586269 0.0132021 0.380898
0.0257795 0.0495887 0.373828
0.0508859 0.0546689 0.373945
0.0451674 0.062873 0.372414
0.0376843 0.0654116 0.371727
0.0326382 0.0643662 0.371707
0.0288367 -0.000673052 0.382018
0.0635244 0.0302293 0.378338
0.0578992 0.0305349 0.378079
0.0276223 0.0565368 0.372773
0.0067215 0.00569339 0.380167
0.075756 0.0235947 0.379856
0.0509449 0.053583 0.374113
0.0322136 0.0618537 0.372085
0.0262292 0.0267727 0.377499
0.036805 0.0406151 0.375667
0.059313 0.00156854 0.382779
0.0257359 0.0175146 0.378965
0.0415471 0.0413095 0.375729
0.00459378 0.00642738 0.37996
0.025986 0.0455598 0.374465
0.0590579 0.023556 0.379231
0.0489708 0.0595921 0.373064
0.0466007 0.0664664 0.371871
0.0506357 0.0595382 0.373132
0.0387726 0.00393606 0.381626
0.0486533 0.0657197 0.372064
0.0364567 0.0644748 0.37181
0.0426916 0.064777 0.371993
0.031699 0.000568128 0.381903
0.0616926 0.031447 0.378055
0.0534135 0.0604731 0.37308
0.044631 0.0665432 0.371778
0.0527541 0.0494937 0.374819
0.0246541 0.0544367 0.372978
0.048631 0.00919004 0.381141
0.0586975 0.00216263 0.382644
0.0558154 0.00648565 0.381842
0.0521305 0.0374512 0.376728
0.0577575 0.0174826 0.380145
0.0386811 0.0412324 0.375618
0.0498964 0.0646278 0.372274
0.0618028 0.0205419 0.379801
0.0477562 0.0664557 0.371899
0.0559037 0.0347328 0.377301
0.0256971 0.023407 0.377996
0.0260607 0.0329408 0.376476
0.0360208 0.0406475 0.375607
0.0445462 0.0419246 0.375718
0.0367666 0.0673098 0.371348
0.0684549 -0.0024031 0.38373
0.0043778 0.0156845 0.378437
0.0316426 0.063478 0.37177
0.0219195 -0.00759322 0.38283
0.0419288 0.0649092 0.371922
0.0326919 0.0445537 0.374849
0.053662 0.0115488 0.380932
0.0388151 0.0655019 0.371707
0.0215763 0.0235542 0.377807
0.0304445 0.0453929 0.374626
0.0288361 0.044488 0.37471
0.00674762 -0.00377391 0.381644
0.0552668 0.0402112 0.376379
0.0463705 0.00833177 0.38117
0.0817229 0.00545141 0.382948
0.0547789 0.0506213 0.374686
0.0296885 0.0382486 0.375741
0.0316188 0.0366636 0.376068
0.0535574 0.0434959 0.375785
0.0517539 0.0103205 0.38105
0.0397202 0.0412339 0.375632
0.0830507 0.0121821 0.381912
0.0784582 0.0243122 0.379792
0.0275867 0.0625917 0.371746
0.0419006 0.065602 0.371794
0.0726889 0.023974 0.379629
0.0253542 -0.00169963 0.381993
0.0575766 0.0324335 0.377706
0.0465895 0.0426269 0.375659
0.027756 0.0314918 0.376747
0.033451 0.0628847 0.371913
0.0245665 0.0242493 0.377791
0.0488517 0.046616 0.375099
0.0499722 0.0636088 0.37241
0.0276439 0.0545469 0.373035
0.0267825 0.0294979 0.377028
0.0268865 0.0625628 0.371717
0.0347007 0.0645973 0.371679
0.0536726 0.0494545 0.374818
0.0781647 0.00513862 0.382851
0.0560593 0.0337669 0.377427
0.0747546 0.0222895 0.379967
0.0566703 0.00654206 0.381825
0.0449484 0.04369 0.375418
0.0147191 -0.00450655 0.382039
0.0324837 0.00567214 0.381064
0.0546388 0.0556128 0.373861
0.0692953 0.00117312 0.383155
0.0309298 0.0626907 0.371841
0.0306392 0.0443949 0.37477
0.0467352 0.0416879 0.375804
0.0254814 0.0305299 0.376805
0.0319887 0.0654729 0.371431
0.0347344 0.0433645 0.375086
0.00379649 0.00539435 0.380037
0.0527659 0.042601 0.375878
0.0496898 0.0605844 0.372874
0.0842911 0.00712001 0.382753
0.0375748 0.0648762 0.371733
0.0245963 0.0174621 0.37887
0.028423 0.0152128 0.379373
0.0589918 0.0277745 0.378492
0.0285144 0.0505079 0.373704
0.0347164 0.00964061 0.380503
0.0427081 0.0654555 0.37183
0.010426 0.0145036 0.378817
0.0480602 0.00591247 0.381597
0.0269119 0.0415142 0.375088
0.0835273 0.00650019 0.382821
0.0428021 0.0413968 0.375697
0.0487271 0.0604862 0.372848
0.00760882 0.000833578 0.380905
0.0477964 0.00840257 0.381183
0.0408661 0.0425735 0.375433
0.0593818 0.0265218 0.378702
0.0517773 0.061612 0.372779
0.0789331 -1.77761e-05 0.383694
0.0609152 0.00087481 0.38288
0.0244799 -0.00682519 0.38276
0.0257716 0.0556592 0.372766
0.047636 0.0657146 0.371963
0.0216892 0.0225811 0.37793
0.00652105 0.000599511 0.380898
0.0518408 0.0524873 0.374245
0.0178299 0.0231346 0.377696
0.0176062 -0.00841125 0.382757
0.0588294 0.0287658 0.378315
0.0326914 0.0376382 0.375916
0.0670758 0.0227912 0.379581
0.0335919 0.0395326 0.375644
0.0274242 0.0613949 0.3719
0.0238598 0.0533201 0.373065
0.0507686 0.0574056 0.373409
0.0289003 0.0635079 0.371614
0.0316103 0.0114968 0.380073
0.0545743 0.0434788 0.375787
0.0641056 0.0264534 0.378877
0.067106 -0.00280035 0.383689
0.084793 0.0125154 0.381885
0.0758413 -0.00150894 0.383806
0.059049 0.0226368 0.3793
0.0582621 0.0351589 0.377258
0.0475453 0.0407249 0.375963
0.0495469 0.0653812 0.372073
0.0546682 0.0366422 0.376882
0.00574775 0.000376965 0.380889
0.0490585 0.00551825 0.381674
0.05076 0.00492715 0.381832
0.0256481 -0.00621261 0.382687
0.0497045 0.0586021 0.373165
0.052601 0.00462284 0.381948
0.00827443 0.0118644 0.379135
0.0818922 0.0114849 0.381934
0.0578559 0.0127771 0.380832
0.050718 0.00532179 0.381764
0.0518987 0.0435759 0.37566
0.0527034 0.0434483 0.37571
0.0378062 0.0425264 0.375304
0.0547934 0.0375233 0.376739
0.0787882 0.0226406 0.380023
0.0436703 0.0645159 0.371987
0.0492962 0.0411713 0.375948
0.00336832 0.00804376 0.379563
0.070702 0.0271732 0.378993
0.0418375 0.0687724 0.371233
0.0403599 0.0657311 0.371667
0.0544076 0.0476779 0.37509
0.026709 0.0525765 0.373272
0.016775 0.0212998 0.377929
0.0526778 0.0615071 0.372801
0.0537299 0.0563111 0.373675
0.0263112 0.0275871 0.377272
0.0787771 0.0233355 0.379906
0.0470621 0.0451727 0.375215
0.0497675 0.0465335 0.375097
0.0485723 0.0661707 0.371896
0.0348158 0.039152 0.375726
0.084293 0.00682278 0.382762
0.0478201 0.0424839 0.375673
0.0526914 0.0545856 0.373909
0.0288264 0.0381242 0.375667
0.0566678 0.00729734 0.381657
0.0457197 0.0636079 0.372199
0.0266748 0.0554872 0.372795
0.0030792 0.00520853 0.379997
0.043759 0.0638582 0.372084
0.0364038 0.00255249 0.381662
0.034557 0.00222288 0.381646
0.0536621 0.059465 0.373157
0.026662 0.0425104 0.374877
0.0338168 0.00773979 0.380731
0.059584 0.0193568 0.379822
0.0767568 0.00358581 0.382995
0.0404946 0.0412299 0.375595
0.0207277 0.0223728 0.37789
0.0254197 0.0485199 0.373862
0.0555754 0.0372835 0.376789
0.063911 0.0254266 0.379004
0.0337964 0.0664032 0.371298
0.0517768 0.05458 0.373866
0.00397007 0.000968409 0.380704
0.0517314 0.0554314 0.373726
0.0585275 0.0124128 0.380892
0.0287767 0.049505 0.373824
0.0513888 0.0424432 0.3758
0.0545942 0.0543901 0.373998
0.050791 0.0586095 0.373178
0.0836733 0.0122216 0.381856
0.0415164 0.0408507 0.375687
0.0327475 0.063463 0.371726
0.0640098 0.0273154 0.378698
0.0306824 0.046423 0.374386
0.0437379 0.0655345 0.3718
0.0286452 0.0434865 0.374782
0.0516731 0.0605282 0.372899
0.0516468 0.048515 0.374827
0.0616601 0.0243932 0.379076
0.029805 0.043499 0.37482
0.0824534 0.0211311 0.380373
0.0627757 0.0205385 0.379736
0.0507128 0.00946475 0.381065
0.0516078 0.00532174 0.381763
0.0520472 0.00492729 0.381843
0.0456461 0.0663681 0.37173
0.0827391 0.00652484 0.382728
0.0436631 0.0672438 0.371515
0.0647943 0.0274462 0.378697
0.0543507 0.0591413 0.373213
0.0262788 0.0215335 0.378212
0.0826292 0.01872 0.380759
0.0805991 0.00547431 0.382812
0.0358086 0.00730654 0.380851
0.0327199 0.0625001 0.371865
0.0561777 0.0151532 0.380346
0.0309751 0.0614487 0.371967
0.0361434 0.00642956 0.381001
0.00493147 0.0125265 0.37886
0.0335064 0.0635271 0.371726
0.0507873 0.061408 0.372709
0.0546251 0.0495105 0.374763
0.0256544 0.0475043 0.374008
0.0516833 0.0475792 0.374963
0.0568336 0.0154649 0.380316
0.0326337 0.0384147 0.375726
0.0288789 0.0375941 0.375718
0.0227172 0.0175078 0.378715
0.0297336 0.012377 0.379799
0.0396389 0.067477 0.371311
0.0267069 0.0545611 0.372905
0.028797 0.0485129 0.373955
0.0297018 0.0375442 0.375751
0.0813928 0.016829 0.381003
0.0507152 0.0475742 0.37492
0.0437507 0.0410479 0.37571
0.0527243 0.0554749 0.373724
0.0148117 0.0214222 0.377786
0.03365 0.0384568 0.375748
0.0537241 0.0525182 0.374235
0.0368512 0.0429298 0.375148
0.0593254 0.0335189 0.377496
0.0834797 0.0183959 0.380824
0.00586932 0.0175219 0.378078
0.0278896 0.0125703 0.379692
0.0196173 0.022236 0.377831
0.0528163 0.0415262 0.375966
0.0749696 -0.00180688 0.383754
0.00872475 0.0137396 0.378791
0.065609 0.0272527 0.378735
0.034695 0.0664678 0.371282
0.0716786 -0.00257993 0.383754
0.0506398 0.0605432 0.372826
0.0297184 0.0114367 0.379939
0.0217341 0.0174406 0.378678
0.0556638 0.0365541 0.376868
0.0447275 0.0645311 0.371964
0.0475455 0.0414926 0.375771
0.0689055 -0.00319836 0.383748
0.0526444 0.0485349 0.374829
0.0617052 0.0196569 0.379807
0.0276575 0.0604306 0.371986
0.0406988 0.0675092 0.371334
0.0387121 0.067467 0.371266
0.0317153 0.0417771 0.375133
0.0526965 0.0465251 0.37515
0.0544738 0.0574912 0.373454
0.0223986 -0.00740921 0.38269
0.0628008 0.0243004 0.379096
0.00964144 0.0136798 0.378825
0.0567747 0.0336801 0.377364
0.0269105 0.0304618 0.37677
0.0609239 -1.77408e-05 0.382933
0.0276575 0.0552791 0.372808
0.0303888 0.0599386 0.372161
0.0569318 0.0116437 0.38091
0.0536614 0.0585526 0.373249
0.0277879 0.0432523 0.374745
0.0318801 0.00570492 0.380931
0.00571506 -0.000339649 0.380929
0.0607174 0.0314355 0.377867
0.0510117 0.0398621 0.376152
0.052717 0.0535529 0.374015
0.027702 0.0595105 0.372127
0.0538536 0.00394022 0.38203
0.0256767 0.0224827 0.378001
0.0692036 -0.00319835 0.383748
0.0191548 0.0258228 0.377221
0.0625424 0.0305764 0.378071
0.0527291 0.0595202 0.373055
0.0276491 0.0164999 0.379035
0.0459509 0.0417046 0.375665
0.0595598 0.0254737 0.378779
0.0266444 0.0614593 0.371771
0.0309154 0.0655503 0.371272
0.025741 0.0465856 0.374128
0.060882 0.0321718 0.377751
0.0288826 0.0424344 0.374911
0.0589363 0.0214781 0.379396
0.0308098 -0.000218109 0.381836
0.0678509 0.0273382 0.378786
0.0318032 0.0375089 0.375809
0.0577852 0.00663372 0.381737
0.0536184 0.0424602 0.375824
0.0286189 0.0544653 0.372964
0.0486418 0.041437 0.375802
0.0498033 0.0474516 0.374878
0.0585864 0.0313102 0.377799
0.0579208 0.00545291 0.381927
0.0247322 0.0235638 0.377781
0.0286721 0.0355183 0.376006
0.077414 0.025582 0.379415
0.0498372 0.00571457 0.381581
0.0753739 -0.00210526 0.383788
0.0404956 0.0407445 0.375604
0.0715 -0.00309938 0.383803
0.058699 0.029569 0.378076
0.0337384 0.00816406 0.380588
0.0347241 0.00839406 0.380587
0.046632 0.0655001 0.371853
0.0276533 0.0585242 0.372267
0.0536959 0.0535382 0.374037
0.0577129 0.035302 0.377117
0.0771724 0.00414698 0.382848
0.0396278 0.0665429 0.371422
0.0826301 0.0113994 0.381884
0.0376248 0.0673749 0.371212
0.00868051 -0.0046549 0.381711
0.024696 0.0534739 0.372964
0.0145897 0.0204712 0.377892
0.0267942 0.0486422 0.373818
0.0317146 0.0625982 0.371758
0.02569 0.0163289 0.378969
0.0686739 0.0273968 0.37879
0.0294954 0.0484361 0.37395
0.0367214 0.0664505 0.371324
0.0240073 0.0508477 0.373356
0.0750681 -0.00200565 0.38375
0.0597116 0.0245339 0.378913
0.0266246 0.05858 0.37221
0.0529773 0.038819 0.376366
0.0248207 0.0166323 0.378883
0.0547499 0.0116768 0.380791
0.0565549 0.0373217 0.376733
0.0515915 0.0633365 0.372367
0.0356659 0.0665248 0.371262
0.0544952 0.00549141 0.38177
0.0269115 0.0407123 0.375084
0.0464404 0.0646384 0.371965
0.0852743 0.0122454 0.381829
0.0276762 0.0494121 0.373713
0.0766495 0.0261131 0.379279
0.0315787 0.0616528 0.371891
0.0735309 0.00164919 0.383094
0.0388752 0.00736429 0.380886
0.0447107 0.0654972 0.371761
0.0456776 0.0655184 0.371793
0.0447962 0.0423839 0.375476
0.0146918 -0.00543869 0.382042
0.0257824 0.0544852 0.372824
0.0526989 0.0405177 0.37607
0.0585195 0.0185004 0.379824
0.0264271 0.0284967 0.377024
0.0486426 0.0445172 0.375275
0.070962 -0.00200477 0.383582
0.0268471 0.0175322 0.378801
0.0847382 0.0115262 0.38192
0.015663 0.0213659 0.377768
0.0554655 0.0396132 0.376316
0.0267026 0.0605317 0.371884
0.0269805 0.0493923 0.373685
0.0836786 0.0115603 0.381874
0.0516811 0.0594773 0.372982
0.0327343 0.0654864 0.371311
0.0804401 0.0165585 0.380948
0.0526326 0.0576597 0.373307
0.0305931 0.0434339 0.374772
0.0317163 0.0433235 0.374831
0.0761048 -0.00011708 0.383464
0.0336388 0.0655508 0.371327
0.055407 0.00527316 0.381824
0.0593548 0.00650849 0.381772
0.028738 0.0602023 0.372004
0.0476739 0.0620995 0.372403
0.0307912 0.00649044 0.380712
0.0316663 0.064597 0.371405
0.0255239 0.0295388 0.376811
0.0569323 0.0324447 0.377511
0.0417168 0.067437 0.371321
0.0727758 -0.00250239 0.383716
0.035573 0.0432027 0.374987
0.0525845 0.0585927 0.373145
0.0237474 0.0234618 0.377718
0.026689 0.0535461 0.372993
0.0536575 0.0576145 0.373342
0.0526805 0.0454998 0.375252
0.0408666 0.00569098 0.38121
0.0287519 0.0366483 0.375783
0.0562024 0.038214 0.376552
0.0223908 0.0168543 0.378726
0.0306693 0.0645413 0.37137
0.030502 0.0356719 0.376003
0.00375325 0.0125383 0.378725
0.0167052 -0.00619101 0.382217
0.0546478 0.0425942 0.375787
0.052717 0.0515755 0.374271
0.0466775 0.0623214 0.37232
0.0568225 0.0124855 0.380706
0.00904813 0.0143006 0.378637
0.0277247 0.0485955 0.373819
0.0517952 0.0515779 0.374234
0.0526876 0.0525299 0.374114
0.04964 0.0455102 0.375128
0.0537443 0.0553469 0.3737
0.0396781 0.0425508 0.375233
0.0524261 0.00512346 0.381722
0.0276968 0.0344947 0.376081
0.0336299 0.00156368 0.381594
0.0556892 0.00374261 0.382064
0.0597056 0.0235435 0.379031
0.0457544 0.0627922 0.372204
0.0257273 0.0535192 0.372949
0.031073 0.0661156 0.371123
0.0175488 0.0223125 0.37766
0.0646885 0.000564128 0.382908
0.0586761 0.00545156 0.381898
0.0315102 -0.00120486 0.381957
0.0549651 0.0134339 0.380476
0.00777431 0.0136161 0.378691
0.00455199 0.00552323 0.379871
0.0516575 0.0397294 0.376125
0.0527803 0.0605169 0.372826
0.061793 0.000610242 0.382789
0.0552274 0.0543131 0.373913
0.0287134 0.0595332 0.372086
0.0695698 0.0274861 0.378756
0.0528338 0.010575 0.38085
0.0805415 0.00451238 0.382854
0.0241604 0.016759 0.378788
0.0270006 0.0432592 0.374635
0.0526628 0.0475239 0.374904
0.0517577 0.0535595 0.3739
0.06803 0.0229781 0.379419
0.0518792 0.0385155 0.376321
0.0297991 0.00655484 0.380635
0.0506929 0.0402855 0.37599
0.0156283 -0.004313 0.381852
0.030723 0.0374786 0.375697
0.0516431 0.0585499 0.373089
0.0342262 0.00136615 0.381631
0.0298874 0.010494 0.380002
0.0536098 0.0105685 0.380872
0.0536534 0.054542 0.373806
0.0296153 0.0365628 0.375801
0.0814829 0.0184796 0.380637
0.0535861 0.0484956 0.374775
0.0775149 0.0235831 0.379668
0.0377111 0.0665395 0.371284
0.0220898 -0.00377746 0.382003
0.0266775 0.0595055 0.372003
0.0186907 0.0222475 0.377693
0.0488365 0.0407835 0.375836
0.051666 0.0465805 0.375009
0.0559168 0.0142671 0.380359
0.0668214 0.000312998 0.383007
0.0734789 -0.00280084 0.383755
0.0507097 0.0516038 0.374164
0.026858 0.0386758 0.375354
0.0476878 0.0435706 0.375342
0.0497477 0.008592 0.38104
0.0499599 0.0577456 0.373147
0.0607054 0.0305224 0.377922
0.028341 0.0536277 0.373005
0.0758176 0.0226328 0.379752
0.00698052 0.0163898 0.378193
0.0660255 0.0266256 0.378744
0.04308 0.0431344 0.375237
0.0603998 0.0197465 0.37964
0.0176069 0.0214569 0.377773
0.036702 0.0656411 0.371382
0.0589472 0.0204747 0.379467
0.0356111 0.0656779 0.371334
0.0544399 0.048502 0.374795
0.0434132 0.0685577 0.371161
0.035586 0.0647927 0.371475
0.0575049 0.0115797 0.380842
0.0716628 0.0264291 0.378981
0.029687 0.00536217 0.380805
0.0536337 0.00551822 0.381671
0.0326377 0.0666806 0.37106
0.032977 0.000773134 0.381664
0.0474798 0.0618087 0.372394
0.0247677 0.0526035 0.373027
0.0557588 0.0354824 0.376932
0.0267715 0.0475184 0.373919
0.0257057 0.0585369 0.372108
0.0554876 0.00460406 0.381884
0.0117585 0.0185362 0.378017
0.0586974 0.0305304 0.377835
0.0378592 0.00732022 0.38079
0.029589 0.0477054 0.373992
0.0516739 0.0624468 0.372444
0.0517399 0.0506154 0.374348
0.0157245 0.0186381 0.378147
0.0277158 0.0424622 0.374764
0.0257282 0.0525477 0.373068
0.0629172 0.00315161 0.38239
0.0241357 0.0566262 0.372353
0.0236984 0.0175555 0.378616
0.0287122 0.0585962 0.372207
0.0517166 0.0445222 0.375324
0.0546145 0.0565067 0.373506
0.0328329 0.0406301 0.375247
0.0283431 0.0526557 0.373147
0.0452244 0.06807 0.371298
0.0616823 0.0235711 0.379062
0.0583599 0.0344577 0.377188
0.0317277 0.0424587 0.374911
0.0536922 0.0415225 0.375878
0.0477298 0.0444024 0.375193
0.045681 0.0645173 0.371884
0.0345783 0.0656076 0.371295
0.0425716 0.0673605 0.37131
0.0313473 0.038308 0.375561
0.0545966 0.0415559 0.375904
0.0207405 -0.00834315 0.382663
0.0497355 0.0444936 0.375249
0.012744 0.0205274 0.377725
0.0456899 0.043533 0.375253
0.0687537 0.0265177 0.378844
0.078918 0.0194098 0.380364
0.0242093 -0.00755022 0.382662
0.0588338 0.00627042 0.381728
0.0258098 0.015623 0.378996
0.0448104 0.0418742 0.375484
0.0475238 0.0453634 0.375024
0.0778634 0.0044035 0.382735
0.0401867 0.0689683 0.370957
0.0277462 0.0475167 0.373941
0.00304493 0.00346086 0.380102
0.0797689 0.00337797 0.38297
0.0312672 0.0442255 0.374601
0.0760557 0.0009748 0.383217
0.0296569 0.06436 0.371304
0.0556773 0.0123548 0.380629
0.0326172 0.0424611 0.374932
0.0605464 0.0185162 0.379819
0.0167515 -0.00446069 0.381881
0.00675273 -0.000468786 0.380867
0.0386379 0.066562 0.37128
0.0536694 0.0465801 0.37505
0.0248385 0.0575734 0.37221
0.0118391 0.0202341 0.377727
0.0576882 0.0165357 0.380027
0.032689 0.0645711 0.371377
0.0276528 0.0535427 0.372962
0.0167445 0.0204549 0.377873
0.0267939 0.0566068 0.372437
0.0596853 0.031534 0.37769
0.0466916 0.0434994 0.375283
0.0675368 0.00044378 0.382978
0.0367532 0.0415049 0.375233
0.0337425 0.0645891 0.371411
0.0516433 0.0575601 0.373206
0.0500798 0.0624464 0.372363
0.0467829 0.0673292 0.371455
0.0247119 0.0294082 0.376726
0.00688825 0.0115914 0.378926
0.00892491 -0.00555481 0.381756
0.00577358 0.010603 0.379042
0.0277839 -0.000610795 0.381663
0.0257222 0.0515769 0.373197
0.0287007 0.0114977 0.379748
0.0507187 0.0455721 0.375091
0.0516992 0.0455702 0.375127
0.0356431 0.0405656 0.375334
0.0818378 0.00448859 0.38285
0.0717602 0.00125767 0.382994
0.0406684 0.0665307 0.371345
0.0377567 0.0656729 0.371374
0.0507239 0.0465782 0.374925
0.0271003 0.000179948 0.381503
0.0852765 0.0115535 0.381839
0.00773694 0.0126381 0.37878
0.0670551 0.0272943 0.378631
0.0650483 0.00156818 0.382691
0.043581 0.042177 0.375366
0.00672121 0.0125149 0.378761
0.0305044 0.0051772 0.380825
0.011708 0.0165639 0.378295
0.0205903 0.0216311 0.377811
0.0636164 0.0244983 0.378951
0.0257084 0.0606162 0.371735
0.0567691 0.0145438 0.380294
0.0796768 0.0237794 0.379661
0.0276877 0.0505034 0.373432
0.0616845 0.02258 0.379185
0.0264252 -0.00150079 0.381743
0.079577 0.0224686 0.379868
0.0788876 0.00454209 0.382723
0.0297303 0.0424837 0.374797
0.0345752 0.0645886 0.371424
0.0278726 0.0632764 0.371385
0.0636261 0.000468987 0.382809
0.0536437 0.0475437 0.374871
0.0417525 0.0665078 0.371381
0.0275514 0.0415064 0.374871
0.0257452 0.0594501 0.37192
0.0590385 0.0263519 0.378477
0.0828449 0.00550846 0.382712
0.0156818 0.0205702 0.377793
0.0788487 0.0188999 0.38041
0.0827032 0.00444475 0.382877
0.0186166 0.0213375 0.377778
0.030915 0.0115249 0.379811
0.0294935 0.0346665 0.376039
0.0546105 0.0105018 0.380856
0.0276331 0.0405984 0.375015
0.0767129 0.0225436 0.379742
0.0306947 0.0365779 0.375775
0.020044 -0.00844115 0.382613
0.031733 -0.000435214 0.381761
0.0744558 0.00183395 0.382986
0.00398962 0.0114425 0.37882
0.0307086 0.0455874 0.374326
0.00571514 0.012375 0.378734
0.0827608 0.010428 0.381913
0.0107257 -0.00555545 0.381801
0.0293168 0.0391888 0.375302
0.0307553 0.041826 0.374931
0.0768765 0.0218242 0.379861
0.0267508 0.0447727 0.374308
0.0338636 0.00432521 0.381073
0.0544861 0.0513993 0.374275
0.0804785 0.0222998 0.379918
0.0536589 0.00457031 0.381769
0.0635727 0.00144904 0.382639
0.0678064 0.0263322 0.378797
0.0516531 0.0565545 0.373338
0.0278033 0.0366629 0.375648
0.0186142 0.0205449 0.377896
0.0246028 0.0284444 0.376849
0.0527799 0.00948229 0.380945
0.0306846 0.0425207 0.374812
0.0193499 -0.00453537 0.381952
0.0326372 0.0434422 0.374736
0.0174202 -0.00461311 0.381893
0.0506079 0.0624756 0.372345
0.0667739 0.0255058 0.378887
0.0647867 0.026338 0.378679
0.0417468 0.0413856 0.375403
0.0536492 0.056633 0.373395
0.038565 0.0424085 0.37512
0.0436139 0.0666377 0.371414
0.0576187 0.0318591 0.377524
0.0246501 0.0265686 0.377148
0.0596422 0.00527377 0.381872
0.0555797 0.0385852 0.376367
0.0276323 -0.00140192 0.381754
0.0497505 0.0615648 0.372457
0.0408623 0.0412083 0.375398
0.00561944 0.0113268 0.378889
0.0635685 0.0283489 0.378309
